# .PCD v0.7 - Point Cloud Data file format
VERSION 0.7
FIELDS x y z
SIZE 4 4 4
TYPE F F F
COUNT 1 1 1
WIDTH 1322
HEIGHT 1
VIEWPOINT 0 0 0 1 0 0 0
POINTS 1322
DATA ascii
0.017761048 0.031838633 0.037430525
0.01837918 0.031821597 0.037486881
0.022968449 0.031755954 0.037471082
0.026270874 0.031632513 0.037464343
0.026545133 0.031958673 0.037309222
0.027181445 0.031841811 0.037341453
0.027578687 0.031968731 0.037282713
0.028028257 0.031989232 0.037314456
0.013330188 0.032266352 0.037285469
0.013928841 0.032153133 0.037304401
0.014449336 0.032210194 0.037193645
0.014928751 0.032326661 0.037195943
0.015360028 0.032269951 0.037163477
0.015804974 0.032225039 0.037259597
0.016361684 0.032290779 0.037249681
0.016964376 0.03232798 0.037322454
0.017459501 0.032331765 0.037281666
0.017955061 0.032286853 0.03726396
0.018435139 0.032313548 0.037299152
0.018953267 0.032347701 0.037365951
0.019423986 0.032317683 0.037378285
0.019891921 0.032292131 0.037347808
0.020344848 0.032246169 0.037262503
0.020674841 0.032296896 0.037400138
0.021458328 0.032353505 0.037232291
0.021971229 0.032267265 0.037443116
0.022482183 0.032234117 0.037472792
0.022847097 0.032306615 0.037333161
0.023274168 0.032120734 0.03740358
0.023742799 0.032319717 0.037331242
0.02434691 0.032191172 0.037341624
0.024919543 0.032172188 0.037388958
0.025200732 0.032354306 0.037323099
0.025734443 0.032277822 0.03730775
0.026294431 0.032275677 0.037277825
0.026901467 0.032334361 0.03724739
0.027317859 0.032164812 0.037223622
0.02772975 0.032252938 0.037153624
0.028300649 0.03234395 0.037260242
0.028734917 0.032199156 0.037284356
0.02933849 0.032171801 0.037382495
0.013763006 0.032705653 0.037302651
0.014276613 0.032692961 0.037234213
0.01489965 0.032596301 0.037360191
0.015195507 0.032780569 0.037323192
0.015730992 0.032747574 0.037252028
0.016310787 0.032797787 0.037211645
0.016935751 0.032724906 0.037216902
0.017446987 0.032626208 0.037244886
0.017793411 0.032854244 0.037252553
0.018406736 0.032653116 0.037265945
0.018793365 0.032819208 0.037235569
0.019452587 0.03279461 0.037241369
0.019934662 0.032687914 0.037272181
0.020373298 0.032707781 0.037152454
0.020962905 0.03276787 0.037178107
0.02122652 0.03271573 0.03727464
0.021950627 0.032710161 0.037242737
0.022013981 0.032569222 0.037136924
0.022692081 0.032739159 0.037269186
0.023474749 0.032831751 0.037312917
0.023929186 0.032798484 0.037205737
0.024423406 0.032771394 0.037192442
0.024817631 0.032548908 0.037196204
0.025268219 0.032716811 0.037143216
0.025536582 0.032831226 0.037125967
0.026255142 0.032717004 0.037193179
0.026974624 0.032712668 0.037220847
0.027291154 0.032686818 0.03726742
0.027776176 0.032641236 0.037274145
0.028498175 0.032543086 0.03735939
0.028516326 0.032929651 0.037312485
0.029246323 0.032744877 0.037316427
0.013500003 0.033473182 0.037196521
0.014458267 0.033474211 0.037255846
0.014756897 0.033430845 0.037153643
0.01587024 0.033139594 0.037092578
0.018011957 0.03343628 0.037176669
0.018541815 0.03327693 0.03707733
0.019230902 0.033305816 0.037137005
0.020967608 0.033491846 0.037264299
0.02139294 0.033446863 0.037263613
0.02199563 0.033370089 0.037306767
0.022448592 0.033360943 0.037263744
0.023220547 0.033239398 0.037193399
0.013346744 0.033838138 0.037116513
0.014149447 0.033723552 0.037141699
0.014959821 0.033852343 0.037055351
0.015304998 0.033972215 0.037031315
0.017141776 0.033766694 0.037303731
0.017616969 0.033716418 0.037321791
0.018040735 0.033873241 0.03719667
0.018535243 0.033877276 0.037218329
0.019028639 0.03389293 0.037239704
0.019757666 0.033880446 0.037167013
0.020324515 0.033744603 0.037121281
0.020537887 0.033634234 0.037265737
0.028409027 0.033819444 0.037141383
0.028776001 0.033737298 0.037268877
0.014348764 -0.032555141 0.037864361
0.014530568 -0.032535497 0.037855763
0.026706349 -0.032611381 0.037525412
0.013497832 -0.032262884 0.03751963
0.013968925 -0.032239359 0.037507504
0.014442861 -0.032200158 0.037504476
0.014738852 -0.032318436 0.037759956
0.015463969 -0.032241579 0.037568785
0.015911104 -0.032232374 0.037503947
0.017736886 -0.032233007 0.037558105
0.018474465 -0.032226812 0.037590168
0.01897746 -0.032231223 0.037545145
0.021102704 -0.032221571 0.037700683
0.021689178 -0.032244142 0.037673008
0.022219969 -0.032195728 0.037771642
0.022821188 -0.032174781 0.037766147
0.023471436 -0.032216981 0.037558898
0.024448356 -0.032295346 0.037502237
0.024929952 -0.032268021 0.037559163
0.025417199 -0.032214224 0.037583828
0.026445664 -0.032250207 0.037564781
0.027257685 -0.032253459 0.037592612
0.013209822 -0.031759012 0.037714537
0.013652392 -0.031767581 0.037776362
0.014199613 -0.031746287 0.037743054
0.014716255 -0.031731196 0.037659444
0.015271174 -0.031686619 0.037822761
0.015592215 -0.031751886 0.037664589
0.016083829 -0.031751946 0.037755288
0.016690861 -0.031782337 0.037681349
0.01724582 -0.03171166 0.037762005
0.017728979 -0.031770747 0.037674159
0.018242076 -0.031740222 0.037673153
0.018741753 -0.031639535 0.037774473
0.01919619 -0.031712335 0.037643671
0.019670244 -0.031739306 0.037852991
0.02023644 -0.031818967 0.037675019
0.020720704 -0.031681843 0.03777381
0.021261143 -0.031648222 0.037615344
0.021673003 -0.031618573 0.037676666
0.022278132 -0.03175503 0.037627984
0.022738338 -0.031693798 0.037700444
0.023229962 -0.031729236 0.037698332
0.0237731 -0.031714831 0.037763055
0.02423501 -0.031778459 0.03768602
0.024775056 -0.031755321 0.03777945
0.025297113 -0.031761318 0.037778892
0.025788931 -0.031751588 0.037790786
0.026389316 -0.031802401 0.037693296
0.026849294 -0.031736922 0.037741166
0.027322853 -0.031794813 0.037750829
0.027808284 -0.031733576 0.037749849
0.028329508 -0.031652037 0.037782803
0.028797202 -0.031817012 0.037604094
0.029200034 -0.031879921 0.037653077
0.013292202 -0.031272914 0.037779342
0.013796083 -0.031280309 0.037719935
0.014137955 -0.031095374 0.037762377
0.014736085 -0.031319678 0.037659943
0.01516787 -0.031086676 0.037780356
0.015722476 -0.031252053 0.037795253
0.016095173 -0.031075587 0.037722893
0.01666474 -0.031062435 0.037772436
0.017191585 -0.031103289 0.037785608
0.0176697 -0.031309623 0.037753224
0.018141605 -0.031144867 0.037786178
0.018633422 -0.031028884 0.037803713
0.019264905 -0.03127335 0.03780755
0.019746972 -0.031356785 0.037774161
0.020167135 -0.031305894 0.037790559
0.020667594 -0.031309761 0.037809454
0.021173775 -0.031094188 0.037902143
0.021754898 -0.031288341 0.037816506
0.022229388 -0.031336393 0.037755761
0.022821531 -0.031302866 0.037866741
0.023246288 -0.031314325 0.037830263
0.023669962 -0.031155447 0.037982244
0.024237631 -0.031193553 0.037948936
0.024775932 -0.031175895 0.037944268
0.025154592 -0.031061254 0.037941851
0.025615092 -0.031100353 0.037863854
0.026257638 -0.03129961 0.037776116
0.026741944 -0.031233147 0.037719261
0.027299376 -0.031291481 0.037818626
0.027802397 -0.03116856 0.037806436
0.02821329 -0.031183766 0.037719864
0.028716311 -0.031455349 0.037765019
0.029308446 -0.031229805 0.037702974
0.015153371 -0.030777203 0.037917111
0.015641425 -0.030727245 0.03792353
0.016148787 -0.030714178 0.037884966
0.016533315 -0.030674823 0.037890047
0.017320452 -0.030660829 0.037976727
0.01838664 -0.030744413 0.037920251
0.019085089 -0.030763693 0.03797761
0.027868532 -0.030756382 0.03797818
0.028642345 -0.030826356 0.037902065
0.029092178 -0.030983957 0.037881814
0.029281838 -0.023644844 0.037674595
0.015789242 0.03093417 0.037961505
0.01903086 0.03083585 0.037972379
0.015426953 0.031261124 0.037951794
0.015979314 0.031200621 0.037878368
0.016254939 0.031281698 0.037750691
0.016530011 0.031468194 0.037748013
0.017004199 0.031190367 0.037930131
0.017984595 0.031471755 0.037859585
0.018417392 0.031396821 0.03795322
0.019581797 0.031051112 0.037856258
0.020187095 0.031060223 0.037959106
0.021462802 0.031474501 0.037937343
0.022988167 0.031257555 0.03790547
0.023266101 0.03134416 0.037929852
0.023735218 0.03132407 0.037909742
0.024254039 0.031249115 0.037891336
0.025974089 0.03128339 0.037865233
0.026469193 0.031277236 0.037844613
0.026948482 0.031273995 0.037867144
0.027449073 0.031441141 0.037779786
0.027957797 0.031461883 0.037847672
0.028480489 0.031485982 0.03784677
0.013447151 0.031771019 0.037851054
0.013934549 0.031821512 0.037857912
0.014415646 0.031633124 0.037879519
0.014910839 0.031639598 0.037851594
0.015297812 0.031768549 0.037833404
0.015728777 0.031646714 0.037873589
0.016274428 0.03180502 0.03771387
0.016799325 0.031803485 0.037701327
0.017213931 0.031761292 0.037729498
0.017748112 0.031740803 0.037743386
0.018306578 0.031881634 0.037752744
0.018899061 0.031777732 0.037761848
0.019436449 0.031675603 0.037918426
0.019967092 0.031763222 0.037888106
0.020316465 0.031740978 0.03771757
0.020931765 0.031885274 0.037752267
0.021363204 0.03176567 0.037792847
0.021964669 0.031781577 0.037736997
0.022174498 0.031750459 0.037870899
0.022637302 0.031762168 0.037771452
0.023301015 0.03179365 0.037716642
0.023841061 0.031863037 0.037731003
0.024350157 0.031678714 0.037649043
0.024805995 0.031877711 0.037732914
0.025265822 0.031707931 0.037783999
0.025785506 0.031788044 0.037772827
0.026418343 0.031765439 0.037748322
0.026960447 0.031781647 0.037723713
0.027299767 0.031760063 0.037667248
0.027903032 0.031774446 0.037767176
0.028308243 0.031755995 0.037644506
0.028822588 0.031591769 0.037959933
0.029044723 0.031643115 0.037503351
0.01301067 0.03220129 0.037671816
0.013787256 0.03226693 0.037674505
0.014461108 0.032066662 0.037717264
0.014850777 0.032269437 0.037682019
0.015414988 0.032280296 0.037703842
0.015975136 0.032284826 0.037716463
0.016449837 0.032290429 0.037779685
0.01674349 0.032343116 0.037752144
0.017284742 0.032275729 0.037748665
0.0179797 0.032406423 0.037746418
0.018293932 0.032221198 0.037768498
0.018915977 0.032240238 0.037711345
0.019498549 0.03202172 0.037738174
0.019647913 0.032197595 0.037796136
0.020290637 0.032303926 0.037696216
0.020745948 0.032195203 0.037715346
0.021417664 0.03200198 0.037691142
0.021777898 0.032194767 0.037630904
0.022272453 0.032248102 0.037741262
0.022772782 0.032257661 0.037745252
0.023259919 0.032280747 0.037721124
0.023965325 0.032102302 0.037745275
0.024246663 0.032255597 0.037737817
0.024750452 0.03237946 0.037734922
0.025215525 0.032015543 0.037779372
0.02573609 0.032212429 0.03768234
0.026254984 0.032196723 0.037686251
0.026682556 0.032134794 0.037805717
0.027325585 0.032189757 0.037770953
0.027838899 0.032042976 0.037808452
0.028489552 0.032150455 0.037857912
0.028568616 0.032496579 0.037824027
0.029013727 0.032017063 0.037853781
0.018460749 0.032786123 0.037556067
0.018768681 0.032791637 0.037522744
0.021572547 0.032959186 0.037813175
0.022044118 0.032994192 0.037752163
0.022554252 0.032945763 0.037710063
0.023002459 0.032896958 0.037760112
0.023639118 0.032770738 0.037775505
0.026988821 0.032501541 0.037822083
0.027288694 0.032802649 0.037820987
0.027965169 0.032687902 0.037821196
0.028402649 0.032676339 0.037765339
0.028910358 0.032839082 0.037650704
0.029206999 0.032550745 0.037853826
0.013179776 0.033168625 0.037740383
0.013722157 0.033315893 0.037551783
0.017463621 0.03346036 0.037692532
0.017734058 0.033306237 0.037856087
0.018463574 0.033492245 0.037707034
0.021253057 0.033174321 0.037611984
0.021750962 0.033231191 0.037553366
0.017228413 0.033565447 0.037605327
0.018888544 0.033528447 0.037691202
0.014269434 -0.032217059 0.038068086
0.01836787 -0.03231547 0.038452324
0.013190135 -0.031730928 0.038294889
0.013811419 -0.031736724 0.038190793
0.016516946 -0.031660222 0.038026895
0.018228197 -0.031777017 0.038020641
0.01912838 -0.031657688 0.038491774
0.019652763 -0.031709872 0.038448889
0.020169914 -0.031683009 0.038417459
0.020789748 -0.031567805 0.038408175
0.021004409 -0.031768121 0.038025625
0.02173456 -0.031738482 0.038051561
0.022744972 -0.031746536 0.038041152
0.023490148 -0.031761281 0.038062096
0.024448289 -0.031714689 0.038026899
0.025121387 -0.031542704 0.038149282
0.026445778 -0.031720284 0.038043424
0.028965019 -0.031608839 0.038036995
0.01307757 -0.031071331 0.038315546
0.013698865 -0.031212166 0.038201846
0.014287525 -0.031189172 0.038271539
0.014987385 -0.031322263 0.038091689
0.015225504 -0.031208655 0.038288888
0.015762154 -0.031209163 0.038288385
0.016278207 -0.031318787 0.038181085
0.016797647 -0.031235714 0.038207121
0.017322456 -0.031240743 0.038203895
0.018173575 -0.031226721 0.038189847
0.018582474 -0.03109251 0.038275443
0.019167125 -0.031275872 0.038222499
0.019975871 -0.031169366 0.038487006
0.020265259 -0.031249754 0.038299009
0.02073678 -0.031318635 0.038115688
0.021476874 -0.031356618 0.038120963
0.021969799 -0.031312637 0.03813535
0.022465974 -0.031266514 0.03809122
0.022755865 -0.031232234 0.038276672
0.023279542 -0.031366497 0.038156942
0.023747895 -0.031241516 0.038253576
0.024319971 -0.031193763 0.038273416
0.024865014 -0.031331211 0.038280245
0.02541949 -0.031257462 0.038334034
0.025929196 -0.031221934 0.038318239
0.026430197 -0.031225707 0.038285445
0.026858583 -0.031242868 0.038227204
0.02730326 -0.031230941 0.038239803
0.027864337 -0.031291533 0.038105566
0.028219163 -0.031217504 0.038264178
0.028934157 -0.03136244 0.038198151
0.029232364 -0.031128339 0.038357448
0.013306729 -0.030760583 0.038231514
0.013804736 -0.03075023 0.038285028
0.014259262 -0.030784898 0.038228825
0.01476024 -0.030848572 0.038251866
0.015331401 -0.030791752 0.03832119
0.015669283 -0.030537363 0.038246065
0.016189696 -0.030830359 0.038244106
0.016796913 -0.030769799 0.038274191
0.017132368 -0.030530641 0.038291149
0.017619602 -0.030809538 0.038217682
0.018230522 -0.030795664 0.038246572
0.018667899 -0.030587249 0.038295314
0.019107824 -0.030810647 0.038243029
0.019706424 -0.030842287 0.038245264
0.020239174 -0.030810917 0.038259178
0.020739006 -0.030814769 0.038252827
0.021257142 -0.030801713 0.038253855
0.021761017 -0.03080284 0.038215689
0.022279002 -0.03076317 0.038251739
0.022825193 -0.030719902 0.03832829
0.023249192 -0.030829787 0.038301203
0.023728542 -0.030743506 0.038363487
0.024098571 -0.030628908 0.038413398
0.024764044 -0.03086563 0.038299974
0.025268046 -0.030782389 0.038316708
0.025716387 -0.030781288 0.038222026
0.02635204 -0.030839862 0.038171802
0.026755694 -0.03072146 0.038231235
0.027425202 -0.030831493 0.038206641
0.027767202 -0.030799985 0.038310636
0.028271304 -0.030805476 0.03824091
0.028713474 -0.030813485 0.038333889
0.029329479 -0.03058435 0.038252559
0.014432901 -0.030234938 0.038470909
0.015320906 -0.030293671 0.038462255
0.01577938 -0.030203741 0.03845625
0.016106611 -0.030199768 0.038334467
0.016594421 -0.030118728 0.038377121
0.017108835 -0.030125862 0.038375795
0.017602462 -0.030111846 0.038401362
0.018111596 -0.030114453 0.038436636
0.018603027 -0.030211102 0.038441267
0.021035612 -0.030211998 0.038470022
0.022260252 -0.03041945 0.038317129
0.025222229 -0.030084891 0.038425025
0.025758214 -0.030135106 0.038448207
0.026109457 -0.030485991 0.038320426
0.027151795 -0.030488137 0.038318899
0.02770121 -0.030238509 0.038455632
0.02941657 -0.02390861 0.038169563
0.014139036 0.030488385 0.038372669
0.019545641 0.030441886 0.038300455
0.020009162 0.030481305 0.03837378
0.024004171 0.030497033 0.038366139
0.013447659 0.030717792 0.038412247
0.013919768 0.030678457 0.038435716
0.01444542 0.030726416 0.038433496
0.014894065 0.030755837 0.03840987
0.015406648 0.030832607 0.03838364
0.015988909 0.03073178 0.038362276
0.016471397 0.03086222 0.038353428
0.016846817 0.030745218 0.038419046
0.017491158 0.030886756 0.038384609
0.017871946 0.030740138 0.038490474
0.018631948 0.030531757 0.038366765
0.019022163 0.030752141 0.038298234
0.019516954 0.030991167 0.038306281
0.020294126 0.030823901 0.038371127
0.020738462 0.030830726 0.038400982
0.02134224 0.030667543 0.038476638
0.021503573 0.030992508 0.03832835
0.022151476 0.030839279 0.03842378
0.022965429 0.030890048 0.038390089
0.023377981 0.030758103 0.038414214
0.023962434 0.030889384 0.038398851
0.024421986 0.030758925 0.038322337
0.024986099 0.030983983 0.038364142
0.025316209 0.03081066 0.038388461
0.025871392 0.030811723 0.038216911
0.026477968 0.030754967 0.038393542
0.026947876 0.030736106 0.038434409
0.027260499 0.03081828 0.038365584
0.027621638 0.030623505 0.038469173
0.028233649 0.030729625 0.03841611
0.028881321 0.030844172 0.038354766
0.013350686 0.031212071 0.038234327
0.013958231 0.031352907 0.038198624
0.014248086 0.031127572 0.038323872
0.014696352 0.031273782 0.038185365
0.015218823 0.031112473 0.038323343
0.01581417 0.031224906 0.038327545
0.016207542 0.031336356 0.038252741
0.01677702 0.031357747 0.038159445
0.017395312 0.031180758 0.038425863
0.0177997 0.031280804 0.038203027
0.018454535 0.031238338 0.038268421
0.018922361 0.031332422 0.038220268
0.019396825 0.031246334 0.038350023
0.019820103 0.03136003 0.038196947
0.020392414 0.031256016 0.038191274
0.020828348 0.031380385 0.03824047
0.021290751 0.031171575 0.038224451
0.021749796 0.031300444 0.038183793
0.022285769 0.03135293 0.038196273
0.022815594 0.031241512 0.038340587
0.023460174 0.031356029 0.038293492
0.023917874 0.031283673 0.038189944
0.024437375 0.031322461 0.038195945
0.024791548 0.031277835 0.038201764
0.025337055 0.031280994 0.038174551
0.025938304 0.031320244 0.03831473
0.026430987 0.031323049 0.038270041
0.02692027 0.031268179 0.038206466
0.027389459 0.031277131 0.038219973
0.027865129 0.031360548 0.038232125
0.028443445 0.031247204 0.038236573
0.028849091 0.031324401 0.03834527
0.029443277 0.031227421 0.038364045
0.01373945 0.031938367 0.038144752
0.01474462 0.031695928 0.038140163
0.015188508 0.031638656 0.038193915
0.015748164 0.031784434 0.038222596
0.01624877 0.031758346 0.03819697
0.016781572 0.031827744 0.038177166
0.017218065 0.031736191 0.038253777
0.017712422 0.031784151 0.038261462
0.018455226 0.031781703 0.038235109
0.018892478 0.031726856 0.038221851
0.019486928 0.031574056 0.03824871
0.019776689 0.031762689 0.038232297
0.020224933 0.031771883 0.03826227
0.020555381 0.031905871 0.038189724
0.021010075 0.031867035 0.038225081
0.021552145 0.031896226 0.038285613
0.02224547 0.031763274 0.038255371
0.022802666 0.031782579 0.038199134
0.023477495 0.0315523 0.038253542
0.023822822 0.031505935 0.038189922
0.024749212 0.031906426 0.03817223
0.025753537 0.031717986 0.038203854
0.026383657 0.031701028 0.038170174
0.026920572 0.031642769 0.038254589
0.027344014 0.031512566 0.038304735
0.028153101 0.031686563 0.038372394
0.028721981 0.031814501 0.038128346
0.016385816 0.032364551 0.038495302
0.01660266 0.032423984 0.038342215
0.017241649 0.032352522 0.038308751
0.017930988 0.032327808 0.038229406
0.018261984 0.032184303 0.038247172
0.01886091 0.03226487 0.038334977
0.023459001 0.032243632 0.038297981
0.023973014 0.032498926 0.038224842
0.024195027 0.032293893 0.038422663
0.027546259 0.032064818 0.038381681
0.028517695 0.032051574 0.038171858
0.01339919 0.032717116 0.03823375
0.021988358 0.032778267 0.038041644
0.023008194 0.032549646 0.038267925
0.027268413 0.03254614 0.038119525
0.029245198 0.032542966 0.038120076
0.017574454 0.033065159 0.038153429
0.018191682 0.033165298 0.038105149
0.01826084 -0.032150142 0.038502667
0.018629558 -0.032311536 0.038537227
0.017722078 -0.031755157 0.038782142
0.018163979 -0.031890519 0.038679883
0.018763121 -0.031958997 0.038682096
0.019098673 -0.031570256 0.038786981
0.013215273 -0.031286839 0.038663
0.013502926 -0.031143773 0.038540747
0.018147783 -0.031481907 0.038854655
0.018782683 -0.031321276 0.038793169
0.01912592 -0.031127697 0.038732439
0.019581284 -0.031201132 0.038641069
0.020109838 -0.031234415 0.038776226
0.020770807 -0.031160686 0.038645696
0.021319084 -0.03113368 0.038716663
0.02197241 -0.031276099 0.038679216
0.022137286 -0.031073557 0.038984347
0.023486558 -0.03119429 0.038503226
0.025367901 -0.031164633 0.038791269
0.025666265 -0.031390302 0.038685266
0.026116494 -0.031266574 0.038792703
0.026623737 -0.031265367 0.038850263
0.028760687 -0.031158559 0.038676951
0.029057451 -0.031241797 0.038865186
0.013216469 -0.03057676 0.038867649
0.013759597 -0.030766778 0.038589735
0.014717375 -0.030703217 0.038713809
0.015311569 -0.030673981 0.038798306
0.01564578 -0.030516939 0.038653158
0.0162374 -0.030772548 0.038643595
0.016796688 -0.030700302 0.038804695
0.017431295 -0.03065804 0.038737807
0.017981686 -0.030739008 0.038603928
0.018263716 -0.030692637 0.038727697
0.018800292 -0.03063783 0.038619153
0.019248299 -0.03074633 0.038795102
0.01994448 -0.030799383 0.03861827
0.020434491 -0.030744782 0.038796216
0.020812918 -0.030670661 0.038704775
0.021270163 -0.030784179 0.038811892
0.021712175 -0.030779758 0.038920056
0.022124954 -0.030678552 0.038762841
0.022766188 -0.030780584 0.038633335
0.023481747 -0.030735653 0.038718708
0.023834489 -0.030896425 0.038582034
0.024458602 -0.030774333 0.038611405
0.024935914 -0.030744683 0.038664073
0.025440685 -0.030718859 0.038817994
0.025788318 -0.03085809 0.038742281
0.026246741 -0.030731173 0.03878941
0.026946886 -0.030753337 0.03864393
0.027299151 -0.03065481 0.038715102
0.027929895 -0.03078307 0.038645349
0.02843844 -0.030685484 0.038819857
0.028830957 -0.030904952 0.038829267
0.029339535 -0.030804101 0.038613293
0.013239169 -0.03031981 0.038702711
0.013679348 -0.030210696 0.038716763
0.014178582 -0.030330703 0.038703721
0.014711946 -0.030293101 0.038749713
0.015214786 -0.030330746 0.038729634
0.015788566 -0.030270748 0.038735367
0.016254252 -0.030300776 0.03874832
0.016747085 -0.030248256 0.038831457
0.017092405 -0.030307725 0.038716692
0.017665463 -0.030338878 0.03871841
0.018316876 -0.030219695 0.038732301
0.018783795 -0.030191468 0.038775921
0.019261718 -0.030299572 0.038699139
0.019761357 -0.030279959 0.038709179
0.020271981 -0.030293534 0.038736265
0.020621508 -0.030052157 0.038751461
0.021184493 -0.030312112 0.038702376
0.021666918 -0.030237827 0.038634472
0.022253081 -0.030176489 0.038686391
0.0227839 -0.030299023 0.038734924
0.023318989 -0.030303614 0.038825806
0.023748979 -0.030302292 0.03873099
0.024232678 -0.03028556 0.038698688
0.024638904 -0.030215494 0.038687341
0.025205685 -0.030361393 0.038701683
0.025738349 -0.030256569 0.038758766
0.026226228 -0.03029792 0.038759988
0.026723705 -0.030291369 0.03874433
0.027266912 -0.030162033 0.038697366
0.027738638 -0.030314878 0.038756769
0.028155232 -0.030239787 0.038749542
0.028705277 -0.030300399 0.038819268
0.029238109 -0.030191716 0.038768519
0.015348854 -0.029765267 0.038974781
0.016205458 -0.029661816 0.038847756
0.016663469 -0.029606624 0.038812153
0.017072739 -0.029589757 0.038788386
0.01755771 -0.029562268 0.03882027
0.018130079 -0.029536191 0.038861871
0.01881592 -0.029648863 0.038973052
0.019886998 -0.029639442 0.038972441
0.020248365 -0.029609811 0.03890622
0.020636829 -0.029550489 0.038908221
0.021148168 -0.029647497 0.038938563
0.0215248 -0.029728577 0.038960796
0.02216145 -0.02969099 0.03899347
0.022604173 -0.029684309 0.038962051
0.023125235 -0.029660759 0.038978942
0.023784136 -0.029718734 0.038962234
0.024128713 -0.029676836 0.038971003
0.02513868 -0.0297701 0.038895793
0.025786573 -0.029716887 0.03895323
0.027587527 -0.02975769 0.038978416
0.029244609 -0.029752802 0.038995732
0.013497508 0.029895024 0.038996622
0.013744529 0.02992389 0.038809992
0.014426079 0.029929539 0.038840313
0.014818603 0.029663704 0.038947556
0.015407784 0.029866468 0.038960494
0.015989393 0.029854568 0.038998794
0.0189518 0.029944168 0.038720869
0.019420786 0.029955821 0.038647827
0.019895043 0.029851053 0.03880772
0.020950282 0.029864326 0.038945992
0.021491574 0.029865261 0.038940709
0.023251329 0.02965883 0.038973935
0.024567571 0.029713107 0.038996663
0.026982527 0.029698947 0.038988292
0.027772132 0.029725948 0.038996607
0.013234594 0.030342102 0.038725864
0.013922564 0.030254852 0.038916424
0.014244735 0.030329831 0.038710654
0.014946057 0.030257534 0.038737711
0.015443963 0.030303111 0.038717784
0.015915098 0.030310582 0.038723379
0.016338814 0.030252522 0.038794257
0.016852528 0.030287458 0.038856119
0.017316163 0.030287424 0.038903259
0.017941508 0.030351378 0.038937606
0.018318042 0.030279577 0.038866896
0.018869396 0.030276528 0.038985938
0.019417215 0.030185567 0.038999438
0.019726306 0.03032954 0.038879625
0.020355958 0.030301806 0.038797036
0.020934353 0.030247619 0.038775347
0.021432666 0.030194664 0.038772315
0.021970797 0.030315561 0.038766474
0.022443604 0.030279282 0.038930576
0.022626271 0.030297905 0.038804628
0.023163503 0.030235535 0.038840462
0.023669487 0.030166842 0.038838413
0.024417007 0.030196644 0.038983576
0.024970969 0.030007992 0.038970076
0.025441395 0.030228252 0.038918447
0.025753329 0.030289307 0.038760912
0.026423393 0.030232491 0.03878352
0.026824616 0.030242542 0.038846571
0.027269879 0.030333005 0.038864993
0.027726974 0.030191138 0.038857728
0.028315304 0.030253274 0.038861472
0.028720871 0.030335017 0.038810097
0.02918152 0.030237867 0.038833354
0.013345757 0.030713037 0.03875741
0.013757516 0.030778376 0.038734935
0.014222803 0.030766543 0.038753465
0.014668897 0.030703688 0.038781583
0.0153069 0.030858302 0.038753882
0.015861783 0.030771794 0.038758967
0.016449051 0.030719256 0.038769487
0.016985703 0.030839896 0.038777452
0.017460264 0.030817308 0.038744539
0.017948432 0.030832566 0.038788728
0.018474942 0.030855697 0.038700189
0.018960228 0.030811714 0.038721692
0.019333187 0.030733861 0.038765818
0.019923935 0.030777568 0.038703907
0.02042976 0.030816499 0.038803983
0.020904155 0.030812964 0.038778931
0.021451406 0.0305578 0.038811229
0.021759307 0.030902565 0.038712449
0.022327567 0.030741265 0.038673148
0.022957137 0.030687934 0.038844202
0.02342538 0.030779067 0.03881193
0.023956113 0.030592088 0.038794573
0.024308419 0.030795559 0.038682144
0.024737034 0.030650517 0.038761813
0.025207043 0.030753816 0.038679287
0.025741087 0.030794725 0.038811475
0.026154393 0.030720368 0.038831014
0.026947092 0.030676575 0.038898554
0.027417146 0.030664109 0.038910173
0.027925879 0.030733284 0.038699597
0.028361691 0.030759275 0.038844652
0.028812595 0.030687489 0.038732119
0.029376982 0.030657591 0.038731426
0.013602495 0.031455528 0.038685579
0.01400849 0.031396735 0.038646534
0.014501832 0.03139618 0.038659979
0.01502192 0.031404685 0.038718723
0.015813248 0.031292334 0.038697068
0.016460355 0.031250767 0.03870932
0.016951617 0.031226192 0.038692448
0.017428219 0.031266 0.038663425
0.017972637 0.031444676 0.038672592
0.018227866 0.03127468 0.038691491
0.018922858 0.031237308 0.038661182
0.019457024 0.031236805 0.038700491
0.019923933 0.031266045 0.038685683
0.02042466 0.031250954 0.038771443
0.020946268 0.031223161 0.038753159
0.021438085 0.031485144 0.038719736
0.02231326 0.03119058 0.038675155
0.02289455 0.031256776 0.038680121
0.023235101 0.031016968 0.038799282
0.023752255 0.03106471 0.038701449
0.024384163 0.031037129 0.038635403
0.025295086 0.031017844 0.038652055
0.02596909 0.0312365 0.038719758
0.026462121 0.031096241 0.038700216
0.026738351 0.031217735 0.038757075
0.027362481 0.031025538 0.038836237
0.027963495 0.031074092 0.038814459
0.028201049 0.031085435 0.038801149
0.028980546 0.031097237 0.038747527
0.029329956 0.031053804 0.038791787
0.013471378 0.031866945 0.038893446
0.013886455 0.031703234 0.038882807
0.018266179 0.031953759 0.038686968
0.021955231 0.031526208 0.038711965
0.024530457 0.03199286 0.038755257
0.025303423 0.031767469 0.038793545
0.025830401 0.031822678 0.038668163
0.02747033 0.031786714 0.038850777
0.027857883 0.031908341 0.038813531
0.028202832 0.031668343 0.038650945
0.028735241 0.031507555 0.038732927
0.013419345 0.032321468 0.038567949
0.016180335 0.032308076 0.038583767
0.016726762 0.032114912 0.038669836
0.017501596 0.032013748 0.038637135
0.01879837 0.032036673 0.03858193
0.023526901 0.032107722 0.038703583
0.02404557 0.03203176 0.038756054
0.01723 -0.031266268 0.039254632
0.017557247 -0.031291977 0.039137267
0.018113581 -0.031003159 0.039152235
0.019418424 -0.031417798 0.039017268
0.019638322 -0.031045681 0.039113272
0.022575293 -0.031011563 0.039100185
0.027030267 -0.031203324 0.03901894
0.027823621 -0.031186108 0.039067373
0.02822645 -0.031142576 0.039048307
0.016164431 -0.030658387 0.039029848
0.017347381 -0.030785967 0.03943776
0.017617086 -0.030756826 0.039425001
0.01815255 -0.030597957 0.039373752
0.018591542 -0.030778715 0.039281644
0.019156318 -0.030786291 0.039298356
0.019707477 -0.030634768 0.039115828
0.020217247 -0.030708535 0.039138902
0.022028396 -0.030858878 0.039094023
0.022601098 -0.030655952 0.039245322
0.023137204 -0.030750455 0.039219745
0.023680074 -0.030856635 0.039151859
0.02412881 -0.030808125 0.039130636
0.024610896 -0.03052759 0.039204679
0.026732411 -0.030928306 0.039111659
0.027173631 -0.030834202 0.039213058
0.027638648 -0.030750215 0.039250083
0.028180487 -0.030881885 0.039180581
0.028759172 -0.030681675 0.039158538
0.029247368 -0.030784959 0.039199855
0.013019718 -0.030092657 0.039408308
0.013716755 -0.030205473 0.039239831
0.014385012 -0.030158248 0.039243884
0.014961894 -0.030283907 0.039044637
0.015487412 -0.030254629 0.039063532
0.015957871 -0.030313484 0.039074548
0.016071364 -0.030111142 0.03930036
0.016501293 -0.030262034 0.039069023
0.017481426 -0.0302654 0.039028008
0.017885171 -0.030189943 0.039201647
0.01848726 -0.030278794 0.039068714
0.018903591 -0.030204238 0.039282821
0.019416902 -0.030212738 0.03924752
0.019886229 -0.030178903 0.039251849
0.020444203 -0.030211296 0.039293416
0.020916767 -0.03025661 0.039268959
0.02143888 -0.030219268 0.039262712
0.021851921 -0.030196957 0.039272338
0.022461329 -0.030279126 0.039056901
0.022995308 -0.030242048 0.039057963
0.02315321 -0.030048203 0.039145458
0.023710346 -0.030271901 0.03923887
0.024223816 -0.03019535 0.039310973
0.024821967 -0.030153371 0.039275635
0.025274806 -0.030279562 0.039219197
0.025907679 -0.030261615 0.039053846
0.026443891 -0.030293832 0.039030936
0.026920756 -0.030268513 0.039015796
0.027251348 -0.030164927 0.039094329
0.027764915 -0.030156825 0.039158795
0.028249852 -0.030387212 0.039210405
0.028786397 -0.030204728 0.039281938
0.029147862 -0.030024616 0.039398957
0.013206787 -0.02973713 0.039220665
0.0137409 -0.029784022 0.039207578
0.014232002 -0.029785102 0.039197214
0.014795394 -0.029790152 0.039278001
0.01523395 -0.029799448 0.03918631
0.015735775 -0.029727649 0.039286014
0.01627174 -0.029592078 0.03934383
0.016736705 -0.029777911 0.039237358
0.017301824 -0.029763225 0.039269313
0.017754821 -0.029769966 0.03919955
0.01824997 -0.029779846 0.03920066
0.018647116 -0.029701643 0.039196458
0.01907572 -0.029744348 0.039169904
0.019552449 -0.029748933 0.039171007
0.020086402 -0.029787963 0.039179526
0.020696055 -0.02978198 0.039156348
0.021159295 -0.029713765 0.039166626
0.021706576 -0.029824644 0.039132498
0.022296937 -0.029743502 0.039241772
0.022791367 -0.02973821 0.039253116
0.023266461 -0.029527683 0.039264105
0.023562334 -0.029903751 0.039286755
0.024072021 -0.029668044 0.039275244
0.024775347 -0.029826231 0.039165284
0.025661968 -0.029864907 0.03913394
0.026220262 -0.029830402 0.039158031
0.026722724 -0.029742347 0.039173603
0.027289603 -0.029678278 0.039253887
0.027783824 -0.029678462 0.039232597
0.028228767 -0.029854117 0.039167929
0.02870677 -0.02976408 0.039238531
0.0291098 -0.029557921 0.039279427
0.01330157 -0.029312041 0.039367437
0.013771042 -0.029314488 0.039379314
0.014318962 -0.029343452 0.03935501
0.014898006 -0.02948227 0.039327212
0.01505751 -0.029216167 0.039476436
0.015546421 -0.029226718 0.039447393
0.016217349 -0.029201785 0.039330736
0.016664281 -0.029185459 0.039305136
0.017073736 -0.02926252 0.039294325
0.017701674 -0.029307602 0.039267845
0.018085446 -0.029068885 0.039133627
0.018570218 -0.029235117 0.039287306
0.019001132 -0.029433794 0.039320089
0.01970277 -0.029350221 0.039342292
0.020085584 -0.029017676 0.039341144
0.020560326 -0.029254111 0.039322145
0.02106544 -0.029276604 0.039309878
0.021658465 -0.029318787 0.039359398
0.02214196 -0.029335564 0.039356735
0.022657935 -0.029346475 0.039345041
0.023101319 -0.029304441 0.039358787
0.02362844 -0.029269693 0.039326839
0.024090335 -0.029008541 0.039426349
0.02473058 -0.029343847 0.039313994
0.025201866 -0.029338298 0.039321695
0.025633283 -0.02931362 0.039394662
0.026105404 -0.02943724 0.039324231
0.026822122 -0.029354505 0.039349411
0.02744526 -0.029468084 0.03933375
0.027534131 -0.029255114 0.03944343
0.028095238 -0.02946189 0.039307017
0.028673341 -0.029095728 0.039373286
0.029160863 -0.029036725 0.039442524
0.01773287 -0.028745668 0.039393406
0.018093586 -0.028747737 0.039352752
0.018785996 -0.028705209 0.039354533
0.020235986 -0.028671646 0.039474051
0.02525696 0.02875674 0.039374374
0.026048353 0.028544687 0.039486621
0.02655345 0.028661299 0.039487429
0.013427074 0.029216737 0.03922997
0.013961488 0.029272478 0.039173525
0.014729854 0.029182412 0.039248846
0.0159618 0.02949922 0.039381791
0.019521717 0.02928137 0.039447762
0.021480933 0.02949024 0.039433345
0.022735141 0.029121486 0.03935308
0.023191307 0.029315162 0.039295509
0.024497956 0.029482016 0.039334811
0.024822218 0.029172836 0.039286058
0.025461582 0.029460188 0.039262045
0.026003767 0.029034771 0.039366543
0.026757745 0.029254593 0.03931956
0.027298957 0.029133817 0.039439235
0.027972482 0.029207159 0.039433364
0.013341461 0.029811831 0.039250348
0.013898511 0.029669231 0.039351791
0.014373466 0.029781181 0.039160512
0.014948477 0.029852107 0.039204013
0.015365982 0.029667186 0.039237041
0.015956614 0.02967838 0.039328523
0.016299026 0.029835172 0.039235577
0.016856883 0.029770069 0.039291978
0.01723945 0.029629022 0.039391994
0.017781481 0.029770499 0.039324172
0.018421784 0.029784694 0.039312061
0.018915581 0.029740203 0.039415956
0.019456699 0.029793384 0.039204933
0.019853041 0.02986942 0.039247304
0.02035135 0.029689461 0.039247528
0.020804798 0.029752927 0.039351072
0.021294178 0.029861286 0.039287042
0.021939768 0.029824296 0.039216604
0.022366097 0.029776214 0.039231945
0.022789318 0.029719381 0.039258856
0.023460373 0.029729543 0.039331157
0.023966987 0.029656595 0.03935837
0.024253329 0.029787987 0.039320357
0.024728024 0.029797217 0.039218884
0.025199004 0.029875439 0.039351158
0.025929656 0.029682104 0.039206259
0.026233936 0.029766722 0.039274726
0.026774187 0.029804489 0.039156429
0.02745443 0.029647576 0.039251458
0.027749872 0.029782671 0.039256677
0.028461413 0.029738134 0.039404366
0.02889365 0.029784221 0.039231587
0.029459812 0.029579125 0.03943475
0.013204427 0.030248374 0.039210849
0.01385712 0.030237807 0.039207373
0.014494294 0.030229533 0.039175391
0.014965071 0.030260898 0.039195333
0.015464917 0.030453077 0.039171755
0.015850144 0.030302968 0.039224036
0.016475134 0.030279379 0.039225481
0.016742989 0.030046761 0.039199345
0.017469171 0.030277934 0.039309107
0.017969672 0.030268908 0.039280385
0.018396661 0.030341597 0.039230283
0.018934907 0.030145908 0.039264735
0.019159487 0.030202283 0.039269619
0.019723976 0.030324355 0.039224006
0.020295376 0.03038248 0.039276615
0.02089336 0.030134099 0.039291177
0.021193057 0.030289173 0.039290488
0.021795511 0.030348876 0.039291091
0.022452982 0.030178869 0.039264571
0.022962382 0.030343538 0.039253641
0.023422254 0.030340051 0.039228465
0.023925742 0.030273974 0.039176907
0.024401313 0.030237835 0.039257329
0.024911741 0.03026145 0.039165836
0.02543957 0.030165443 0.039226416
0.025957143 0.030305631 0.039257914
0.02641201 0.030318186 0.039275102
0.026935656 0.030288413 0.039296657
0.027439527 0.030307336 0.039298467
0.027827121 0.030279396 0.039241306
0.028426019 0.030271985 0.039293163
0.028909357 0.030407762 0.039128467
0.029430673 0.030346915 0.039177991
0.013478721 0.030953171 0.039144553
0.013948835 0.030983962 0.039273649
0.014434979 0.030959474 0.039290052
0.015999854 0.030926423 0.03928813
0.016445789 0.030917004 0.03919483
0.016937666 0.03052968 0.039234746
0.017021449 0.030862585 0.039117504
0.01750135 0.030900804 0.039152909
0.018010454 0.03093414 0.039206881
0.018506391 0.030924769 0.039200518
0.019068595 0.030836299 0.039095368
0.019534795 0.030655187 0.039198287
0.020033143 0.030690771 0.039168663
0.020500574 0.030881362 0.039253227
0.022334112 0.030782655 0.039154697
0.02305744 0.030727457 0.039114702
0.026060721 0.030775072 0.039073531
0.026759399 0.030967105 0.03934804
0.027768098 0.030809768 0.039287761
0.028373448 0.030633923 0.039236698
0.013924783 0.03140185 0.039160877
0.01428104 0.03125634 0.03915675
0.014938572 0.031021578 0.039223682
0.015473407 0.031013148 0.039288398
0.015735537 0.031220175 0.039077096
0.020803904 0.031204907 0.039158344
0.021397162 0.031224139 0.039181534
0.025478691 0.031421095 0.039083589
0.026704885 0.031272169 0.039229646
0.027011773 0.031335007 0.039139617
0.027733512 0.031405445 0.039233007
0.013269687 0.031589091 0.039219894
0.023993541 0.031816479 0.039096978
0.024350049 0.031701945 0.039137274
0.025064565 0.031576302 0.03905553
0.017078152 -0.030928925 0.039524846
0.016199162 -0.030054102 0.039743174
0.016617546 -0.030023925 0.039698694
0.023411909 -0.030145673 0.039624643
0.013234411 -0.029604936 0.039732996
0.013755454 -0.029667851 0.039630007
0.014249929 -0.029739665 0.039549191
0.014523182 -0.029826948 0.039524741
0.015343171 -0.029651329 0.039705448
0.016139042 -0.029562822 0.039712403
0.016615363 -0.029526368 0.039766058
0.017045164 -0.029912854 0.039685033
0.017925212 -0.029754244 0.039546732
0.018415138 -0.029800536 0.039526552
0.0189668 -0.029797984 0.039512143
0.01943606 -0.029790098 0.03950537
0.019989826 -0.029700011 0.039511289
0.020468567 -0.02978703 0.039548282
0.02095223 -0.029744104 0.039553061
0.021445461 -0.029748524 0.039585516
0.02195536 -0.029700458 0.039569337
0.022736073 -0.029751405 0.039809637
0.023286307 -0.029772745 0.039629996
0.023940269 -0.029703397 0.039538793
0.024448197 -0.029718306 0.039583337
0.024968684 -0.029695829 0.039552819
0.025423421 -0.029740067 0.03954237
0.025984254 -0.029733842 0.039552655
0.026466506 -0.029651769 0.039719887
0.027024604 -0.029752519 0.039535217
0.027956745 -0.029741976 0.039566282
0.028428635 -0.029751088 0.039597996
0.02878518 -0.029722318 0.039574031
0.029084899 -0.029899122 0.039612681
0.01327749 -0.029187962 0.039671339
0.013967934 -0.029353026 0.039586123
0.014333741 -0.029249394 0.039794672
0.014751118 -0.029268941 0.039737884
0.015082439 -0.029408295 0.039624948
0.015654789 -0.029207703 0.039681602
0.01630627 -0.0291862 0.039684538
0.016779296 -0.029196789 0.039728642
0.017213402 -0.029288961 0.039699525
0.017746916 -0.029261604 0.039642405
0.018281894 -0.029239748 0.039740715
0.018808087 -0.029201198 0.039677929
0.019221153 -0.029169926 0.03976313
0.019820487 -0.029189534 0.039710179
0.020231802 -0.029218003 0.039739899
0.020727107 -0.029258475 0.039713085
0.021288306 -0.029123833 0.03971298
0.0219879 -0.0290343 0.039730448
0.022317221 -0.029251212 0.0397815
0.022977758 -0.029248998 0.039817493
0.023446176 -0.029328354 0.039670549
0.023989741 -0.02935837 0.039636478
0.024318049 -0.029270908 0.039869111
0.024961168 -0.029289737 0.03968719
0.025383279 -0.029336987 0.039606087
0.025752835 -0.029243564 0.039810028
0.026351245 -0.029224895 0.039572921
0.026774677 -0.029233217 0.039672315
0.027359063 -0.029230898 0.03964407
0.027968161 -0.029317126 0.039649803
0.028190317 -0.029249921 0.039701927
0.028771823 -0.029267324 0.039705355
0.029122815 -0.029484816 0.039665502
0.013309902 -0.028747195 0.039825059
0.013625516 -0.028787777 0.039831728
0.014189086 -0.028776787 0.03979798
0.014665369 -0.028728927 0.039898913
0.015107855 -0.028833216 0.039835755
0.015764806 -0.028798437 0.039848365
0.016021643 -0.028714636 0.039870545
0.016727861 -0.028841302 0.039836552
0.017099399 -0.028691858 0.03993392
0.017722249 -0.028807126 0.039776664
0.01808265 -0.028602147 0.03975926
0.018590584 -0.028747082 0.039750092
0.019074643 -0.028738789 0.039796118
0.01972813 -0.028824275 0.039771255
0.020282913 -0.028767349 0.039707746
0.020756729 -0.028753161 0.039740302
0.021103129 -0.028585101 0.039824896
0.021605559 -0.028762411 0.03978185
0.022222219 -0.028807396 0.039764989
0.02275314 -0.028834855 0.039778952
0.023238281 -0.028827563 0.039726246
0.023729509 -0.028805777 0.039743949
0.024219587 -0.028784962 0.039684493
0.024674561 -0.02872809 0.039636247
0.025183236 -0.028832093 0.039735422
0.025749326 -0.028792337 0.0397681
0.026240805 -0.028817913 0.03979202
0.026804021 -0.028652634 0.039793883
0.027313862 -0.028791584 0.039814457
0.027607461 -0.028729334 0.039795909
0.028202066 -0.028908938 0.039774965
0.028770048 -0.028811941 0.039746765
0.02920899 -0.028764933 0.039740484
0.017865555 -0.028171586 0.03989384
0.018109323 -0.028170235 0.039843939
0.018548334 -0.028148538 0.039848283
0.019109901 -0.028195234 0.039888274
0.020168269 -0.028107855 0.039863896
0.020686409 -0.028110508 0.039919674
0.021115363 -0.02818203 0.039985321
0.023775037 -0.028255986 0.039995402
0.024140472 -0.028223002 0.039954688
0.024563856 -0.028177636 0.039963622
0.025114834 -0.028194645 0.039982636
0.029058814 -0.028101299 0.039977655
0.025570568 0.028351096 0.039675217
0.013938243 0.028728817 0.039959747
0.014430569 0.028751651 0.039965428
0.014804994 0.028887376 0.039894324
0.015456973 0.02883276 0.039846089
0.015767843 0.028702941 0.039946035
0.016245525 0.028980549 0.039816964
0.017451229 0.028945191 0.039833289
0.01794282 0.02890081 0.039900608
0.018363712 0.028826663 0.039989933
0.019492555 0.028787773 0.03991409
0.01992929 0.028815318 0.039938726
0.021481032 0.028830629 0.039885644
0.021807371 0.028930834 0.039886471
0.0224449 0.028831016 0.039992157
0.022978928 0.028830396 0.039939407
0.023765825 0.028830472 0.039884195
0.024408117 0.028890511 0.039999086
0.024757424 0.028697297 0.03993798
0.025421247 0.028685924 0.039974842
0.025563415 0.028555492 0.039513927
0.026242264 0.028746273 0.039817795
0.026962548 0.028656093 0.039776053
0.027468294 0.028852785 0.039910857
0.027713513 0.02871451 0.039903551
0.028176082 0.028713483 0.039992303
0.028822426 0.028891148 0.039971884
0.013281204 0.02926754 0.039724536
0.013836056 0.029115064 0.039913312
0.014185915 0.029325085 0.039648395
0.014813866 0.029339528 0.039683029
0.015280765 0.029308381 0.039710168
0.015833536 0.029317863 0.039735179
0.016400324 0.029255845 0.039706238
0.016869534 0.029285084 0.039729081
0.017474443 0.029314682 0.039790556
0.017808909 0.029304504 0.03966587
0.018430164 0.029178699 0.039890975
0.018937333 0.029297372 0.039863348
0.019299043 0.029329693 0.039742529
0.01994741 0.029321777 0.039729822
0.020337868 0.029263325 0.03978093
0.020861618 0.029231764 0.039773397
0.021345001 0.029256897 0.039753482
0.0219632 0.029284209 0.03972679
0.022460703 0.029230217 0.039916579
0.022629395 0.029243086 0.039757259
0.023236107 0.029302008 0.039846934
0.023810059 0.029368542 0.039767243
0.024300149 0.029361719 0.039720841
0.024818556 0.029138772 0.039754905
0.025331715 0.029260822 0.03976386
0.025822882 0.029357435 0.039742999
0.026419071 0.029279906 0.039715227
0.026847906 0.029277807 0.039806008
0.027201092 0.029201619 0.039705895
0.027854949 0.029258389 0.039814766
0.028421653 0.029225776 0.039738175
0.028799573 0.029226113 0.039719235
0.029024677 0.029027347 0.039911311
0.013197261 0.029798858 0.039659776
0.013871918 0.029681262 0.039729372
0.0142933 0.029664207 0.039627835
0.014741308 0.02990409 0.039690115
0.015338953 0.029759804 0.039670739
0.015933938 0.029763393 0.039674293
0.016404802 0.029574083 0.039724015
0.016697455 0.029754313 0.039697349
0.017427832 0.02968628 0.039638348
0.017941734 0.029792104 0.039735883
0.018473888 0.029690152 0.039706841
0.018908825 0.029800951 0.039814617
0.019417966 0.029556738 0.039734241
0.019782184 0.029860826 0.03975638
0.020402119 0.029830154 0.039769351
0.020931214 0.029630981 0.039692387
0.021413859 0.02982028 0.0397579
0.021960966 0.029821657 0.039748654
0.022437967 0.02981266 0.039810374
0.022940289 0.029704088 0.039732009
0.023274288 0.029938649 0.039713554
0.023750452 0.029628433 0.039692581
0.024212752 0.029776406 0.039695963
0.024708286 0.029695503 0.039681621
0.025240723 0.029717833 0.039699383
0.025748555 0.029721711 0.039716929
0.026293999 0.029852098 0.03965373
0.026908964 0.029555364 0.039684899
0.027250603 0.029706854 0.039648123
0.027796993 0.029759886 0.039635427
0.028454591 0.029839532 0.039708957
0.013064993 0.030473785 0.039573099
0.013671189 0.030269975 0.039725032
0.014761608 0.030492468 0.039744906
0.015762635 0.03048192 0.039788149
0.016745709 0.030237554 0.03971288
0.017254848 0.030209716 0.039671764
0.017589903 0.03033044 0.039687954
0.018042361 0.030350162 0.039655637
0.018721525 0.030311752 0.039630704
0.019456262 0.030301921 0.039573275
0.019962732 0.030320775 0.039623741
0.020970181 0.030014401 0.039790116
0.021013131 0.030472383 0.039724458
0.021525621 0.030450627 0.03973905
0.022241963 0.030121591 0.039648477
0.022976702 0.030007048 0.0396454
0.014476702 0.030843236 0.039605841
0.015115357 0.030830774 0.039548934
0.01573607 0.030777439 0.039649546
0.020553954 0.030501014 0.039716501
0.021032045 0.030860584 0.039628603
0.021570681 0.030863514 0.03964863
0.026744187 0.030780798 0.039663829
0.027333414 0.030665079 0.039788961
0.027915575 0.030808341 0.039736975
0.014146922 0.031079872 0.039623346
0.01347641 -0.029325696 0.040040009
0.013955945 -0.029284736 0.040058367
0.016740549 -0.029151902 0.040136609
0.017420517 -0.029208366 0.040096764
0.017950503 -0.029214889 0.040012848
0.020948121 -0.02922686 0.040058319
0.021436388 -0.029212093 0.040108521
0.021875149 -0.029201096 0.04008479
0.023473175 -0.029155362 0.040013641
0.02502629 -0.029181648 0.040020127
0.026033271 -0.029263778 0.040046725
0.026501641 -0.029269509 0.040155537
0.027251204 -0.029202621 0.040049799
0.028463084 -0.029207317 0.040011771
0.013314323 -0.028857727 0.040114261
0.013772782 -0.028748205 0.040148377
0.014242676 -0.028747872 0.040210031
0.014692069 -0.028645577 0.040238947
0.015274754 -0.028668363 0.0401082
0.015675437 -0.02870784 0.040084638
0.016261606 -0.028737852 0.040178746
0.016758649 -0.028660806 0.0402853
0.017173437 -0.028738424 0.040108845
0.017641602 -0.028697137 0.040302847
0.018201755 -0.028809406 0.040105168
0.018660765 -0.028606776 0.040427528
0.019016149 -0.028800445 0.040115517
0.019508926 -0.028731273 0.040098287
0.02032917 -0.028753089 0.040171713
0.02099058 -0.02878353 0.040125515
0.021469831 -0.028780209 0.040099278
0.021826239 -0.02873762 0.040326968
0.022482516 -0.028778123 0.04009312
0.022820894 -0.028680075 0.040280949
0.023438985 -0.028693147 0.040276445
0.023956023 -0.028743343 0.040268391
0.024397511 -0.028776605 0.040260211
0.024979696 -0.028799821 0.040163681
0.025490168 -0.028838065 0.040162958
0.025636286 -0.028629985 0.040441625
0.026202016 -0.02875633 0.040234432
0.026505193 -0.028811749 0.040455494
0.027175909 -0.028745895 0.040319752
0.027725287 -0.028780151 0.040103924
0.028206736 -0.028663108 0.040182676
0.028927151 -0.028685369 0.040085487
0.01326178 -0.02830565 0.040248197
0.013783835 -0.028226379 0.040213443
0.014263686 -0.028219257 0.040244147
0.014756013 -0.028199598 0.040313736
0.015089655 -0.028113326 0.040359918
0.015693627 -0.028303614 0.040290385
0.016309958 -0.028231554 0.040304087
0.016656198 -0.028130969 0.040332709
0.017211426 -0.028193161 0.040305056
0.017629296 -0.028150115 0.040401172
0.018071752 -0.028305659 0.040274311
0.018692899 -0.028325442 0.040209446
0.019261632 -0.028292974 0.040209297
0.019767458 -0.028260663 0.040236168
0.020250479 -0.028293058 0.040217306
0.020739419 -0.028242027 0.04022608
0.021216452 -0.028246665 0.040192381
0.021676982 -0.028218271 0.040113114
0.022209821 -0.028380176 0.040198207
0.022734242 -0.028285215 0.040202599
0.023235196 -0.028251454 0.040209945
0.023743028 -0.028225547 0.040208757
0.02425055 -0.028376456 0.040212184
0.024671331 -0.028233796 0.040232085
0.025191955 -0.028302955 0.040245593
0.025717044 -0.028272172 0.040261235
0.02616391 -0.028201615 0.040286668
0.026705045 -0.028213384 0.040246233
0.027269265 -0.028165225 0.040272482
0.027678931 -0.028341753 0.040197663
0.028099416 -0.028279504 0.040227141
0.028714487 -0.028235584 0.040230062
0.029271506 -0.028300799 0.040082484
0.013746409 -0.027973123 0.040355377
0.014117742 -0.027667418 0.040378064
0.01873621 -0.02771977 0.040276259
0.01981668 -0.027732968 0.040377077
