# .PCD v0.7 - Point Cloud Data file format
VERSION 0.7
FIELDS x y z
SIZE 4 4 4
TYPE F F F
COUNT 1 1 1
WIDTH 1534
HEIGHT 1
VIEWPOINT 0 0 0 1 0 0 0
POINTS 1534
DATA ascii
0.0305 0.039098941 0.018001266
0.0305 0.039199468 0.018000318
0.0305 0.039299998 0.018000001
0.0305 0.046111278 0.017999999
0.0305 0.046104468 0.017999999
0.0305 0.046097655 0.017999999
0.0305 0.046090845 0.017999999
0.0305 0.046084031 0.017999999
0.0305 0.046077222 0.017999999
0.0305 0.046070412 0.017999999
0.0305 0.046063598 0.017999999
0.0305 0.046056788 0.017999999
0.0305 0.046049975 0.017999999
0.0305 0.046043165 0.017999999
0.0305 0.046036355 0.017999999
0.0305 0.046029542 0.017999999
0.0305 0.046022732 0.017999999
0.0305 0.046015922 0.017999999
0.0305 0.046009108 0.017999999
0.0305 0.046002299 0.017999999
0.0305 0.045995485 0.017999999
0.0305 0.045988675 0.017999999
0.0305 0.045981865 0.017999999
0.0305 0.045975052 0.017999999
0.0305 0.045968242 0.017999999
0.0305 0.045961428 0.017999999
0.0305 0.045954619 0.017999999
0.0305 0.045947809 0.017999999
0.0305 0.045940995 0.017999999
0.0305 0.045934185 0.017999999
0.0305 0.045927372 0.017999999
0.0305 0.045920562 0.017999999
0.0305 0.045913752 0.017999999
0.0305 0.045906939 0.017999999
0.0305 0.045900129 0.017999999
0.0305 0.045893319 0.017999999
0.0305 0.045886505 0.017999999
0.0305 0.045879696 0.017999999
0.0305 0.045872882 0.017999999
0.0305 0.045866072 0.017999999
0.0305 0.045859262 0.017999999
0.0305 0.045852449 0.017999999
0.0305 0.045845639 0.017999999
0.0305 0.045838825 0.017999999
0.0305 0.045832016 0.017999999
0.0305 0.045825206 0.017999999
0.0305 0.045818392 0.017999999
0.0305 0.045811582 0.017999999
0.0305 0.045804769 0.017999999
0.0305 0.045797959 0.017999999
0.0305 0.045791149 0.017999999
0.0305 0.045784336 0.017999999
0.0305 0.045777526 0.017999999
0.0305 0.045770716 0.017999999
0.0305 0.045763902 0.017999999
0.0305 0.045757093 0.017999999
0.0305 0.045750279 0.017999999
0.0305 0.045743469 0.017999999
0.0305 0.045736659 0.017999999
0.0305 0.045729846 0.017999999
0.0305 0.045723036 0.017999999
0.0305 0.045716222 0.017999999
0.0305 0.045709413 0.017999999
0.0305 0.045702603 0.017999999
0.0305 0.045695789 0.017999999
0.0305 0.045688979 0.017999999
0.0305 0.045682166 0.017999999
0.0305 0.045675356 0.017999999
0.0305 0.045668546 0.017999999
0.0305 0.045661733 0.017999999
0.0305 0.045654923 0.017999999
0.0305 0.045648113 0.017999999
0.0305 0.045641299 0.017999999
0.0305 0.04563449 0.017999999
0.0305 0.045627676 0.017999999
0.0305 0.045620866 0.017999999
0.0305 0.045614056 0.017999999
0.0305 0.045607243 0.017999999
0.0305 0.045600433 0.017999999
0.0305 0.045593619 0.017999999
0.0305 0.04558681 0.017999999
0.0305 0.04558 0.017999999
0.0305 0.045573186 0.017999999
0.0305 0.045566376 0.017999999
0.0305 0.045559563 0.017999999
0.0305 0.045552753 0.017999999
0.0305 0.045545943 0.017999999
0.0305 0.04553913 0.017999999
0.0305 0.04553232 0.017999999
0.0305 0.04552551 0.017999999
0.0305 0.045518696 0.017999999
0.0305 0.045511886 0.017999999
0.0305 0.045505073 0.017999999
0.0305 0.045498263 0.017999999
0.0305 0.045491453 0.017999999
0.0305 0.04548464 0.017999999
0.0305 0.04547783 0.017999999
0.0305 0.045471016 0.017999999
0.0305 0.045464206 0.017999999
0.0305 0.045457397 0.017999999
0.0305 0.045450583 0.017999999
0.0305 0.045443773 0.017999999
0.0305 0.04543696 0.017999999
0.0305 0.04543015 0.017999999
0.0305 0.04542334 0.017999999
0.0305 0.045416526 0.017999999
0.0305 0.045409717 0.017999999
0.0305 0.045402907 0.017999999
0.0305 0.045396093 0.017999999
0.0305 0.045389283 0.017999999
0.0305 0.04538247 0.017999999
0.0305 0.04537566 0.017999999
0.0305 0.04536885 0.017999999
0.0305 0.045362037 0.017999999
0.0305 0.045355227 0.017999999
0.0305 0.045348413 0.017999999
0.0305 0.045341603 0.017999999
0.0305 0.045334794 0.017999999
0.0305 0.04532798 0.017999999
0.0305 0.04532117 0.017999999
0.0305 0.045314357 0.017999999
0.0305 0.045307547 0.017999999
0.0305 0.045300737 0.017999999
0.0305 0.045293923 0.017999999
0.0305 0.045287114 0.017999999
0.0305 0.045280304 0.017999999
0.0305 0.04527349 0.017999999
0.0305 0.04526668 0.017999999
0.0305 0.045259867 0.017999999
0.0305 0.045253057 0.017999999
0.0305 0.045246247 0.017999999
0.0305 0.045239434 0.017999999
0.0305 0.045232624 0.017999999
0.0305 0.04522581 0.017999999
0.0305 0.045219 0.017999999
0.0305 0.045212191 0.017999999
0.0305 0.045205377 0.017999999
0.0305 0.045198567 0.017999999
0.0305 0.045191754 0.017999999
0.0305 0.045184944 0.017999999
0.0305 0.045178134 0.017999999
0.0305 0.04517132 0.017999999
0.0305 0.045164511 0.017999999
0.0305 0.045157701 0.017999999
0.0305 0.045150887 0.017999999
0.0305 0.045144077 0.017999999
0.0305 0.045137264 0.017999999
0.0305 0.045130454 0.017999999
0.0305 0.045123644 0.017999999
0.0305 0.045116831 0.017999999
0.0305 0.045110021 0.017999999
0.0305 0.045103207 0.017999999
0.0305 0.045096397 0.017999999
0.0305 0.045089588 0.017999999
0.0305 0.045082774 0.017999999
0.0305 0.045075964 0.017999999
0.0305 0.045069151 0.017999999
0.0305 0.045062341 0.017999999
0.0305 0.045055531 0.017999999
0.0305 0.045048717 0.017999999
0.0305 0.045041908 0.017999999
0.0305 0.045035098 0.017999999
0.0305 0.045028284 0.017999999
0.0305 0.045021474 0.017999999
0.0305 0.045014661 0.017999999
0.0305 0.045007851 0.017999999
0.0305 0.045001041 0.017999999
0.0305 0.044994228 0.017999999
0.0305 0.044987418 0.017999999
0.0305 0.044980604 0.017999999
0.0305 0.044973794 0.017999999
0.0305 0.044966985 0.017999999
0.0305 0.044960171 0.017999999
0.0305 0.044953361 0.017999999
0.0305 0.044946548 0.017999999
0.0305 0.044939738 0.017999999
0.0305 0.044932928 0.017999999
0.0305 0.044926114 0.017999999
0.0305 0.044919305 0.017999999
0.0305 0.044912495 0.017999999
0.0305 0.044905681 0.017999999
0.0305 0.044898871 0.017999999
0.0305 0.044892058 0.017999999
0.0305 0.044885248 0.017999999
0.0305 0.044878438 0.017999999
0.0305 0.044871625 0.017999999
0.0305 0.044864815 0.017999999
0.0305 0.044858001 0.017999999
0.0305 0.044851191 0.017999999
0.0305 0.044844382 0.017999999
0.0305 0.044837568 0.017999999
0.0305 0.044830758 0.017999999
0.0305 0.044823945 0.017999999
0.0305 0.044817135 0.017999999
0.0305 0.044810325 0.017999999
0.0305 0.044803511 0.017999999
0.0305 0.044796702 0.017999999
0.0305 0.044789892 0.017999999
0.0305 0.044783078 0.017999999
0.0305 0.044776268 0.017999999
0.0305 0.044769455 0.017999999
0.0305 0.044762645 0.017999999
0.0305 0.044755835 0.017999999
0.0305 0.044749022 0.017999999
0.0305 0.044742212 0.017999999
0.0305 0.044735398 0.017999999
0.0305 0.044728588 0.017999999
0.0305 0.044721778 0.017999999
0.0305 0.044714965 0.017999999
0.0305 0.044708155 0.017999999
0.0305 0.044701345 0.017999999
0.0305 0.044694532 0.017999999
0.0305 0.044687722 0.017999999
0.0305 0.044680908 0.017999999
0.0305 0.044674098 0.017999999
0.0305 0.044667289 0.017999999
0.0305 0.044660475 0.017999999
0.0305 0.044653665 0.017999999
0.0305 0.044646852 0.017999999
0.0305 0.044640042 0.017999999
0.0305 0.044633232 0.017999999
0.0305 0.044626419 0.017999999
0.0305 0.044619609 0.017999999
0.0305 0.044612795 0.017999999
0.0305 0.044605985 0.017999999
0.0305 0.044599175 0.017999999
0.0305 0.044592362 0.017999999
0.0305 0.044585552 0.017999999
0.0305 0.044578739 0.017999999
0.0305 0.044571929 0.017999999
0.0305 0.044565119 0.017999999
0.0305 0.044558305 0.017999999
0.0305 0.044551495 0.017999999
0.0305 0.044544686 0.017999999
0.0305 0.044537872 0.017999999
0.0305 0.044531062 0.017999999
0.0305 0.044524249 0.017999999
0.0305 0.044517439 0.017999999
0.0305 0.044510629 0.017999999
0.0305 0.044503815 0.017999999
0.0305 0.044497006 0.017999999
0.0305 0.044490192 0.017999999
0.0305 0.044483382 0.017999999
0.0305 0.044476572 0.017999999
0.0305 0.044469759 0.017999999
0.0305 0.044462949 0.017999999
0.0305 0.044456135 0.017999999
0.0305 0.044449326 0.017999999
0.0305 0.044442516 0.017999999
0.0305 0.044435702 0.017999999
0.0305 0.044428892 0.017999999
0.0305 0.044422083 0.017999999
0.0305 0.044415269 0.017999999
0.0305 0.044408459 0.017999999
0.0305 0.044401646 0.017999999
0.0305 0.044394836 0.017999999
0.0305 0.044388026 0.017999999
0.0305 0.044381212 0.017999999
0.0305 0.044374403 0.017999999
0.0305 0.044367589 0.017999999
0.0305 0.044360779 0.017999999
0.0305 0.044353969 0.017999999
0.0305 0.044347156 0.017999999
0.0305 0.044340346 0.017999999
0.0305 0.044333532 0.017999999
0.0305 0.044326723 0.017999999
0.0305 0.044319913 0.017999999
0.0305 0.044313099 0.017999999
0.0305 0.044306289 0.017999999
0.0305 0.044299476 0.017999999
0.0305 0.044292666 0.017999999
0.0305 0.044285856 0.017999999
0.0305 0.044279043 0.017999999
0.0305 0.044272233 0.017999999
0.0305 0.044265423 0.017999999
0.0305 0.044258609 0.017999999
0.0305 0.0442518 0.017999999
0.0305 0.044244986 0.017999999
0.0305 0.044238176 0.017999999
0.0305 0.044231366 0.017999999
0.0305 0.044224553 0.017999999
0.0305 0.044217743 0.017999999
0.0305 0.044210929 0.017999999
0.0305 0.04420412 0.017999999
0.0305 0.04419731 0.017999999
0.0305 0.044190496 0.017999999
0.0305 0.044183686 0.017999999
0.0305 0.044176877 0.017999999
0.0305 0.044170063 0.017999999
0.0305 0.044163253 0.017999999
0.0305 0.04415644 0.017999999
0.0305 0.04414963 0.017999999
0.0305 0.04414282 0.017999999
0.0305 0.044136006 0.017999999
0.0305 0.044129197 0.017999999
0.0305 0.044122383 0.017999999
0.0305 0.044115573 0.017999999
0.0305 0.044108763 0.017999999
0.0305 0.04410195 0.017999999
0.0305 0.04409514 0.017999999
0.0305 0.044088326 0.017999999
0.0305 0.044081517 0.017999999
0.0305 0.044074707 0.017999999
0.0305 0.044067893 0.017999999
0.0305 0.044061083 0.017999999
0.0305 0.04405427 0.017999999
0.0305 0.04404746 0.017999999
0.0305 0.04404065 0.017999999
0.0305 0.044033837 0.017999999
0.0305 0.044027027 0.017999999
0.0305 0.044020217 0.017999999
0.0305 0.044013403 0.017999999
0.0305 0.044006594 0.017999999
0.0305 0.04399978 0.017999999
0.0305 0.04399297 0.017999999
0.0305 0.04398616 0.017999999
0.0305 0.043979347 0.017999999
0.0305 0.043972537 0.017999999
0.0305 0.043965727 0.017999999
0.0305 0.043958914 0.017999999
0.0305 0.043952104 0.017999999
0.0305 0.04394529 0.017999999
0.0305 0.04393848 0.017999999
0.0305 0.04393167 0.017999999
0.0305 0.043924857 0.017999999
0.0305 0.043918047 0.017999999
0.0305 0.043911234 0.017999999
0.0305 0.043904424 0.017999999
0.0305 0.043897614 0.017999999
0.0305 0.0438908 0.017999999
0.0305 0.04388399 0.017999999
0.0305 0.043877177 0.017999999
0.0305 0.043870367 0.017999999
0.0305 0.043863557 0.017999999
0.0305 0.043856744 0.017999999
0.0305 0.043849934 0.017999999
0.0305 0.04384312 0.017999999
0.0305 0.043836311 0.017999999
0.0305 0.043829501 0.017999999
0.0305 0.043822687 0.017999999
0.0305 0.043815877 0.017999999
0.0305 0.043809067 0.017999999
0.0305 0.043802254 0.017999999
0.0305 0.043795444 0.017999999
0.0305 0.043788631 0.017999999
0.0305 0.043781821 0.017999999
0.0305 0.043775011 0.017999999
0.0305 0.043768197 0.017999999
0.0305 0.043761387 0.017999999
0.0305 0.043754574 0.017999999
0.0305 0.043747764 0.017999999
0.0305 0.043740954 0.017999999
0.0305 0.043734141 0.017999999
0.0305 0.043727331 0.017999999
0.0305 0.043720517 0.017999999
0.0305 0.043713707 0.017999999
0.0305 0.043706898 0.017999999
0.0305 0.043700084 0.017999999
0.0305 0.043693274 0.017999999
0.0305 0.043686464 0.017999999
0.0305 0.043679651 0.017999999
0.0305 0.043672841 0.017999999
0.0305 0.043666027 0.017999999
0.0305 0.043659218 0.017999999
0.0305 0.043652408 0.017999999
0.0305 0.043645594 0.017999999
0.0305 0.043638784 0.017999999
0.0305 0.043631971 0.017999999
0.0305 0.043625161 0.017999999
0.0305 0.043618351 0.017999999
0.0305 0.043611538 0.017999999
0.0305 0.043604728 0.017999999
0.0305 0.043597914 0.017999999
0.0305 0.043591104 0.017999999
0.0305 0.043584295 0.017999999
0.0305 0.043577481 0.017999999
0.0305 0.043570671 0.017999999
0.0305 0.043563858 0.017999999
0.0305 0.043557048 0.017999999
0.0305 0.043550238 0.017999999
0.0305 0.043543424 0.017999999
0.0305 0.043536615 0.017999999
0.0305 0.043529805 0.017999999
0.0305 0.043522991 0.017999999
0.0305 0.043516181 0.017999999
0.0305 0.043509368 0.017999999
0.0305 0.043502558 0.017999999
0.0305 0.043495748 0.017999999
0.0305 0.043488935 0.017999999
0.0305 0.043482125 0.017999999
0.0305 0.043475311 0.017999999
0.0305 0.043468501 0.017999999
0.0305 0.043461692 0.017999999
0.0305 0.043454878 0.017999999
0.0305 0.043448068 0.017999999
0.0305 0.043441258 0.017999999
0.0305 0.043434445 0.017999999
0.0305 0.043427635 0.017999999
0.0305 0.043420821 0.017999999
0.0305 0.043414012 0.017999999
0.0305 0.043407202 0.017999999
0.0305 0.043400388 0.017999999
0.0305 0.043393578 0.017999999
0.0305 0.043386765 0.017999999
0.0305 0.043379955 0.017999999
0.0305 0.043373145 0.017999999
0.0305 0.043366332 0.017999999
0.0305 0.043359522 0.017999999
0.0305 0.043352708 0.017999999
0.0305 0.043345898 0.017999999
0.0305 0.043339089 0.017999999
0.0305 0.043332275 0.017999999
0.0305 0.043325465 0.017999999
0.0305 0.043318652 0.017999999
0.0305 0.043311842 0.017999999
0.0305 0.043305032 0.017999999
0.0305 0.043298218 0.017999999
0.0305 0.043291409 0.017999999
0.0305 0.043284599 0.017999999
0.0305 0.043277785 0.017999999
0.0305 0.043270975 0.017999999
0.0305 0.043264162 0.017999999
0.0305 0.043257352 0.017999999
0.0305 0.043250542 0.017999999
0.0305 0.043243729 0.017999999
0.0305 0.043236919 0.017999999
0.0305 0.043230105 0.017999999
0.0305 0.043223295 0.017999999
0.0305 0.043216486 0.017999999
0.0305 0.043209672 0.017999999
0.0305 0.043202862 0.017999999
0.0305 0.043196052 0.017999999
0.0305 0.043189239 0.017999999
0.0305 0.043182429 0.017999999
0.0305 0.043175615 0.017999999
0.0305 0.043168806 0.017999999
0.0305 0.043161996 0.017999999
0.0305 0.043155182 0.017999999
0.0305 0.043148372 0.017999999
0.0305 0.043141559 0.017999999
0.0305 0.043134749 0.017999999
0.0305 0.043127939 0.017999999
0.0305 0.043121126 0.017999999
0.0305 0.043114316 0.017999999
0.0305 0.043107502 0.017999999
0.0305 0.043100692 0.017999999
0.0305 0.043093883 0.017999999
0.0305 0.043087069 0.017999999
0.0305 0.043080259 0.017999999
0.0305 0.043073446 0.017999999
0.0305 0.043066636 0.017999999
0.0305 0.043059826 0.017999999
0.0305 0.043053012 0.017999999
0.0305 0.043046203 0.017999999
0.0305 0.043039393 0.017999999
0.0305 0.043032579 0.017999999
0.0305 0.043025769 0.017999999
0.0305 0.043018956 0.017999999
0.0305 0.043012146 0.017999999
0.0305 0.043005336 0.017999999
0.0305 0.042998523 0.017999999
0.0305 0.042991713 0.017999999
0.0305 0.042984903 0.017999999
0.0305 0.042978089 0.017999999
0.0305 0.042971279 0.017999999
0.0305 0.042964466 0.017999999
0.0305 0.042957656 0.017999999
0.0305 0.042950846 0.017999999
0.0305 0.042944033 0.017999999
0.0305 0.042937223 0.017999999
0.0305 0.042930409 0.017999999
0.0305 0.042923599 0.017999999
0.0305 0.04291679 0.017999999
0.0305 0.042909976 0.017999999
0.0305 0.042903166 0.017999999
0.0305 0.042896353 0.017999999
0.0305 0.042889543 0.017999999
0.0305 0.042882733 0.017999999
0.0305 0.042875919 0.017999999
0.0305 0.04286911 0.017999999
0.0305 0.042862296 0.017999999
0.0305 0.042855486 0.017999999
0.0305 0.042848676 0.017999999
0.0305 0.042841863 0.017999999
0.0305 0.042835053 0.017999999
0.0305 0.04282824 0.017999999
0.0305 0.04282143 0.017999999
0.0305 0.04281462 0.017999999
0.0305 0.042807806 0.017999999
0.0305 0.042800996 0.017999999
0.0305 0.042794183 0.017999999
0.0305 0.042787373 0.017999999
0.0305 0.042780563 0.017999999
0.0305 0.04277375 0.017999999
0.0305 0.04276694 0.017999999
0.0305 0.04276013 0.017999999
0.0305 0.042753316 0.017999999
0.0305 0.042746507 0.017999999
0.0305 0.042739693 0.017999999
0.0305 0.042732883 0.017999999
0.0305 0.042726073 0.017999999
0.0305 0.04271926 0.017999999
0.0305 0.04271245 0.017999999
0.0305 0.04270564 0.017999999
0.0305 0.042698827 0.017999999
0.0305 0.042692017 0.017999999
0.0305 0.042685203 0.017999999
0.0305 0.042678393 0.017999999
0.0305 0.042671584 0.017999999
0.0305 0.04266477 0.017999999
0.0305 0.04265796 0.017999999
0.0305 0.042651147 0.017999999
0.0305 0.042644337 0.017999999
0.0305 0.042637527 0.017999999
0.0305 0.042630713 0.017999999
0.0305 0.042623904 0.017999999
0.0305 0.04261709 0.017999999
0.0305 0.04261028 0.017999999
0.0305 0.04260347 0.017999999
0.0305 0.042596657 0.017999999
0.0305 0.042589847 0.017999999
0.0305 0.042583033 0.017999999
0.0305 0.042576224 0.017999999
0.0305 0.042569414 0.017999999
0.0305 0.0425626 0.017999999
0.0305 0.04255579 0.017999999
0.0305 0.042548981 0.017999999
0.0305 0.042542167 0.017999999
0.0305 0.042535357 0.017999999
0.0305 0.042528544 0.017999999
0.0305 0.042521734 0.017999999
0.0305 0.042514924 0.017999999
0.0305 0.04250811 0.017999999
0.0305 0.042501301 0.017999999
0.0305 0.042494487 0.017999999
0.0305 0.042487677 0.017999999
0.0305 0.042480867 0.017999999
0.0305 0.042474054 0.017999999
0.0305 0.042467244 0.017999999
0.0305 0.042460434 0.017999999
0.0305 0.042453621 0.017999999
0.0305 0.042446811 0.017999999
0.0305 0.042439997 0.017999999
0.0305 0.042433187 0.017999999
0.0305 0.042426378 0.017999999
0.0305 0.042419564 0.017999999
0.0305 0.042412754 0.017999999
0.0305 0.042405941 0.017999999
0.0305 0.042399131 0.017999999
0.0305 0.042392321 0.017999999
0.0305 0.042385507 0.017999999
0.0305 0.042378698 0.017999999
0.0305 0.042371884 0.017999999
0.0305 0.042365074 0.017999999
0.0305 0.042358264 0.017999999
0.0305 0.042351451 0.017999999
0.0305 0.042344641 0.017999999
0.0305 0.042337827 0.017999999
0.0305 0.042331018 0.017999999
0.0305 0.042324208 0.017999999
0.0305 0.042317394 0.017999999
0.0305 0.042310584 0.017999999
0.0305 0.042303775 0.017999999
0.0305 0.042296961 0.017999999
0.0305 0.042290151 0.017999999
0.0305 0.042283338 0.017999999
0.0305 0.042276528 0.017999999
0.0305 0.042269718 0.017999999
0.0305 0.042262904 0.017999999
0.0305 0.042256095 0.017999999
0.0305 0.042249281 0.017999999
0.0305 0.042242471 0.017999999
0.0305 0.042235661 0.017999999
0.0305 0.042228848 0.017999999
0.0305 0.042222038 0.017999999
0.0305 0.042215228 0.017999999
0.0305 0.042208415 0.017999999
0.0305 0.042201605 0.017999999
0.0305 0.042194791 0.017999999
0.0305 0.042187981 0.017999999
0.0305 0.042181171 0.017999999
0.0305 0.042174358 0.017999999
0.0305 0.042167548 0.017999999
0.0305 0.042160735 0.017999999
0.0305 0.042153925 0.017999999
0.0305 0.042147115 0.017999999
0.0305 0.042140301 0.017999999
0.0305 0.042133491 0.017999999
0.0305 0.042126678 0.017999999
0.0305 0.042119868 0.017999999
0.0305 0.042113058 0.017999999
0.0305 0.042106245 0.017999999
0.0305 0.042099435 0.017999999
0.0305 0.042092621 0.017999999
0.0305 0.042085811 0.017999999
0.0305 0.042079002 0.017999999
0.0305 0.042072188 0.017999999
0.0305 0.042065378 0.017999999
0.0305 0.042058565 0.017999999
0.0305 0.042051755 0.017999999
0.0305 0.042044945 0.017999999
0.0305 0.042038132 0.017999999
0.0305 0.042031322 0.017999999
0.0305 0.042024512 0.017999999
0.0305 0.042017698 0.017999999
0.0305 0.042010888 0.017999999
0.0305 0.042004079 0.017999999
0.0305 0.041997265 0.017999999
0.0305 0.041990455 0.017999999
0.0305 0.041983642 0.017999999
0.0305 0.041976832 0.017999999
0.0305 0.041970022 0.017999999
0.0305 0.041963208 0.017999999
0.0305 0.041956399 0.017999999
0.0305 0.041949585 0.017999999
0.0305 0.041942775 0.017999999
0.0305 0.041935965 0.017999999
0.0305 0.041929152 0.017999999
0.0305 0.041922342 0.017999999
0.0305 0.041915528 0.017999999
0.0305 0.041908719 0.017999999
0.0305 0.041901909 0.017999999
0.0305 0.041895095 0.017999999
0.0305 0.041888285 0.017999999
0.0305 0.041881472 0.017999999
0.0305 0.041874662 0.017999999
0.0305 0.041867852 0.017999999
0.0305 0.041861039 0.017999999
0.0305 0.041854229 0.017999999
0.0305 0.041847415 0.017999999
0.0305 0.041840605 0.017999999
0.0305 0.041833796 0.017999999
0.0305 0.041826982 0.017999999
0.0305 0.041820172 0.017999999
0.0305 0.041813362 0.017999999
0.0305 0.041806549 0.017999999
0.0305 0.041799739 0.017999999
0.0305 0.041792925 0.017999999
0.0305 0.041786116 0.017999999
0.0305 0.041779306 0.017999999
0.0305 0.041772492 0.017999999
0.0305 0.041765682 0.017999999
0.0305 0.041758869 0.017999999
0.0305 0.041752059 0.017999999
0.0305 0.041745249 0.017999999
0.0305 0.041738436 0.017999999
0.0305 0.041731626 0.017999999
0.0305 0.041724816 0.017999999
0.0305 0.041718002 0.017999999
0.0305 0.041711193 0.017999999
0.0305 0.041704379 0.017999999
0.0305 0.041697569 0.017999999
0.0305 0.041690759 0.017999999
0.0305 0.041683946 0.017999999
0.0305 0.041677136 0.017999999
0.0305 0.041670322 0.017999999
0.0305 0.041663513 0.017999999
0.0305 0.041656703 0.017999999
0.0305 0.041649889 0.017999999
0.0305 0.041643079 0.017999999
0.0305 0.041636266 0.017999999
0.0305 0.041629456 0.017999999
0.0305 0.041622646 0.017999999
0.0305 0.041615833 0.017999999
0.0305 0.041609023 0.017999999
0.0305 0.041602209 0.017999999
0.0305 0.041595399 0.017999999
0.0305 0.04158859 0.017999999
0.0305 0.041581776 0.017999999
0.0305 0.041574966 0.017999999
0.0305 0.041568153 0.017999999
0.0305 0.041561343 0.017999999
0.0305 0.041554533 0.017999999
0.0305 0.041547719 0.017999999
0.0305 0.04154091 0.017999999
0.0305 0.0415341 0.017999999
0.0305 0.041527286 0.017999999
0.0305 0.041520476 0.017999999
0.0305 0.041513667 0.017999999
0.0305 0.041506853 0.017999999
0.0305 0.041500043 0.017999999
0.0305 0.04149323 0.017999999
0.0305 0.04148642 0.017999999
0.0305 0.041479606 0.017999999
0.0305 0.041472796 0.017999999
0.0305 0.041465987 0.017999999
0.0305 0.041459173 0.017999999
0.0305 0.041452363 0.017999999
0.0305 0.041445553 0.017999999
0.0305 0.04143874 0.017999999
0.0305 0.04143193 0.017999999
0.0305 0.041425116 0.017999999
0.0305 0.041418307 0.017999999
0.0305 0.041411497 0.017999999
0.0305 0.041404683 0.017999999
0.0305 0.041397873 0.017999999
0.0305 0.04139106 0.017999999
0.0305 0.04138425 0.017999999
0.0305 0.04137744 0.017999999
0.0305 0.041370627 0.017999999
0.0305 0.041363817 0.017999999
0.0305 0.041357003 0.017999999
0.0305 0.041350193 0.017999999
0.0305 0.041343383 0.017999999
0.0305 0.04133657 0.017999999
0.0305 0.04132976 0.017999999
0.0305 0.041322947 0.017999999
0.0305 0.041316137 0.017999999
0.0305 0.041309327 0.017999999
0.0305 0.041302513 0.017999999
0.0305 0.041295704 0.017999999
0.0305 0.04128889 0.017999999
0.0305 0.04128208 0.017999999
0.0305 0.04127527 0.017999999
0.0305 0.041268457 0.017999999
0.0305 0.041261647 0.017999999
0.0305 0.041254837 0.017999999
0.0305 0.041248024 0.017999999
0.0305 0.041241214 0.017999999
0.0305 0.041234404 0.017999999
0.0305 0.04122759 0.017999999
0.0305 0.04122078 0.017999999
0.0305 0.041213967 0.017999999
0.0305 0.041207157 0.017999999
0.0305 0.041200347 0.017999999
0.0305 0.041193534 0.017999999
0.0305 0.041186724 0.017999999
0.0305 0.04117991 0.017999999
0.0305 0.0411731 0.017999999
0.0305 0.041166291 0.017999999
0.0305 0.041159477 0.017999999
0.0305 0.041152667 0.017999999
0.0305 0.041145854 0.017999999
0.0305 0.041139044 0.017999999
0.0305 0.041132234 0.017999999
0.0305 0.04112542 0.017999999
0.0305 0.041118611 0.017999999
0.0305 0.041111797 0.017999999
0.0305 0.041104987 0.017999999
0.0305 0.041098177 0.017999999
0.0305 0.041091364 0.017999999
0.0305 0.041084554 0.017999999
0.0305 0.04107774 0.017999999
0.0305 0.041070931 0.017999999
0.0305 0.041064121 0.017999999
0.0305 0.041057307 0.017999999
0.0305 0.041050497 0.017999999
0.0305 0.041043688 0.017999999
0.0305 0.041036874 0.017999999
0.0305 0.041030064 0.017999999
0.0305 0.041023251 0.017999999
0.0305 0.041016441 0.017999999
0.0305 0.041009631 0.017999999
0.0305 0.041002817 0.017999999
0.0305 0.040996008 0.017999999
0.0305 0.040989198 0.017999999
0.0305 0.040982384 0.017999999
0.0305 0.040975574 0.017999999
0.0305 0.040968761 0.017999999
0.0305 0.040961951 0.017999999
0.0305 0.040955141 0.017999999
0.0305 0.040948328 0.017999999
0.0305 0.040941518 0.017999999
0.0305 0.040934704 0.017999999
0.0305 0.040927894 0.017999999
0.0305 0.040921085 0.017999999
0.0305 0.040914271 0.017999999
0.0305 0.040907461 0.017999999
0.0305 0.040900648 0.017999999
0.0305 0.040893838 0.017999999
0.0305 0.040887028 0.017999999
0.0305 0.040880214 0.017999999
0.0305 0.040873405 0.017999999
0.0305 0.040866591 0.017999999
0.0305 0.040859781 0.017999999
0.0305 0.040852971 0.017999999
0.0305 0.040846158 0.017999999
0.0305 0.040839348 0.017999999
0.0305 0.040832534 0.017999999
0.0305 0.040825725 0.017999999
0.0305 0.040818915 0.017999999
0.0305 0.040812101 0.017999999
0.0305 0.040805291 0.017999999
0.0305 0.040798482 0.017999999
0.0305 0.040791668 0.017999999
0.0305 0.040784858 0.017999999
0.0305 0.040778048 0.017999999
0.0305 0.040771235 0.017999999
0.0305 0.040764425 0.017999999
0.0305 0.040757611 0.017999999
0.0305 0.040750802 0.017999999
0.0305 0.040743992 0.017999999
0.0305 0.040737178 0.017999999
0.0305 0.040730368 0.017999999
0.0305 0.040723555 0.017999999
0.0305 0.040716745 0.017999999
0.0305 0.040709935 0.017999999
0.0305 0.040703122 0.017999999
0.0305 0.040696312 0.017999999
0.0305 0.040689498 0.017999999
0.0305 0.040682688 0.017999999
0.0305 0.040675879 0.017999999
0.0305 0.040669065 0.017999999
0.0305 0.040662255 0.017999999
0.0305 0.040655442 0.017999999
0.0305 0.040648632 0.017999999
0.0305 0.040641822 0.017999999
0.0305 0.040635008 0.017999999
0.0305 0.040628199 0.017999999
0.0305 0.040621385 0.017999999
0.0305 0.040614575 0.017999999
0.0305 0.040607765 0.017999999
0.0305 0.040600952 0.017999999
0.0305 0.040594142 0.017999999
0.0305 0.040587332 0.017999999
0.0305 0.040580519 0.017999999
0.0305 0.040573709 0.017999999
0.0305 0.040566895 0.017999999
0.0305 0.040560085 0.017999999
0.0305 0.040553272 0.017999999
0.0305 0.040546462 0.017999999
0.0305 0.040539652 0.017999999
0.0305 0.040532839 0.017999999
0.0305 0.040526029 0.017999999
0.0305 0.040519219 0.017999999
0.0305 0.040512405 0.017999999
0.0305 0.040505596 0.017999999
0.0305 0.040498786 0.017999999
0.0305 0.040491972 0.017999999
0.0305 0.040485162 0.017999999
0.0305 0.040478349 0.017999999
0.0305 0.040471539 0.017999999
0.0305 0.040464729 0.017999999
0.0305 0.040457916 0.017999999
0.0305 0.040451106 0.017999999
0.0305 0.040444292 0.017999999
0.0305 0.040437482 0.017999999
0.0305 0.040430672 0.017999999
0.0305 0.040423859 0.017999999
0.0305 0.040417049 0.017999999
0.0305 0.040410236 0.017999999
0.0305 0.040403426 0.017999999
0.0305 0.040396616 0.017999999
0.0305 0.040389802 0.017999999
0.0305 0.040382992 0.017999999
0.0305 0.040376179 0.017999999
0.0305 0.040369369 0.017999999
0.0305 0.040362559 0.017999999
0.0305 0.040355746 0.017999999
0.0305 0.040348936 0.017999999
0.0305 0.040342122 0.017999999
0.0305 0.040335312 0.017999999
0.0305 0.040328503 0.017999999
0.0305 0.040321689 0.017999999
0.0305 0.040314879 0.017999999
0.0305 0.040308069 0.017999999
0.0305 0.040301256 0.017999999
0.0305 0.040294446 0.017999999
0.0305 0.040287632 0.017999999
0.0305 0.040280823 0.017999999
0.0305 0.040274013 0.017999999
0.0305 0.040267199 0.017999999
0.0305 0.040260389 0.017999999
0.0305 0.040253576 0.017999999
0.0305 0.040246766 0.017999999
0.0305 0.040239956 0.017999999
0.0305 0.040233143 0.017999999
0.0305 0.040226333 0.017999999
0.0305 0.040219523 0.017999999
0.0305 0.040212709 0.017999999
0.0305 0.0402059 0.017999999
0.0305 0.040199086 0.017999999
0.0305 0.040192276 0.017999999
0.0305 0.040185466 0.017999999
0.0305 0.040178653 0.017999999
0.0305 0.040171843 0.017999999
0.0305 0.040165029 0.017999999
0.0305 0.04015822 0.017999999
0.0305 0.04015141 0.017999999
0.0305 0.040144596 0.017999999
0.0305 0.040137786 0.017999999
0.0305 0.040130973 0.017999999
0.0305 0.040124163 0.017999999
0.0305 0.040117353 0.017999999
0.0305 0.04011054 0.017999999
0.0305 0.04010373 0.017999999
0.0305 0.040096916 0.017999999
0.0305 0.040090106 0.017999999
0.0305 0.040083297 0.017999999
0.0305 0.040076483 0.017999999
0.0305 0.040069673 0.017999999
0.0305 0.04006286 0.017999999
0.0305 0.04005605 0.017999999
0.0305 0.04004924 0.017999999
0.0305 0.040042426 0.017999999
0.0305 0.040035617 0.017999999
0.0305 0.040028807 0.017999999
0.0305 0.040021993 0.017999999
0.0305 0.040015183 0.017999999
0.0305 0.040008374 0.017999999
0.0305 0.04000156 0.017999999
0.0305 0.03999475 0.017999999
0.0305 0.039987937 0.017999999
0.0305 0.039981127 0.017999999
0.0305 0.039974317 0.017999999
0.0305 0.039967503 0.017999999
0.0305 0.039960694 0.017999999
0.0305 0.03995388 0.017999999
0.0305 0.03994707 0.017999999
0.0305 0.03994026 0.017999999
0.0305 0.039933447 0.017999999
0.0305 0.039926637 0.017999999
0.0305 0.039919823 0.017999999
0.0305 0.039913014 0.017999999
0.0305 0.039906204 0.017999999
0.0305 0.03989939 0.017999999
0.0305 0.03989258 0.017999999
0.0305 0.039885767 0.017999999
0.0305 0.039878957 0.017999999
0.0305 0.039872147 0.017999999
0.0305 0.039865334 0.017999999
0.0305 0.039858524 0.017999999
0.0305 0.03985171 0.017999999
0.0305 0.0398449 0.017999999
0.0305 0.039838091 0.017999999
0.0305 0.039831277 0.017999999
0.0305 0.039824467 0.017999999
0.0305 0.039817657 0.017999999
0.0305 0.039810844 0.017999999
0.0305 0.039804034 0.017999999
0.0305 0.03979722 0.017999999
0.0305 0.039790411 0.017999999
0.0305 0.039783597 0.017999999
0.0305 0.039776787 0.017999999
0.0305 0.039769977 0.017999999
0.0305 0.039763168 0.017999999
0.0305 0.039756354 0.017999999
0.0305 0.039749544 0.017999999
0.0305 0.039742731 0.017999999
0.0305 0.039735921 0.017999999
0.0305 0.039729111 0.017999999
0.0305 0.039722297 0.017999999
0.0305 0.039715488 0.017999999
0.0305 0.039708674 0.017999999
0.0305 0.039701864 0.017999999
0.0305 0.039695054 0.017999999
0.0305 0.039688241 0.017999999
0.0305 0.039681431 0.017999999
0.0305 0.039674617 0.017999999
0.0305 0.039667808 0.017999999
0.0305 0.039660998 0.017999999
0.0305 0.039654184 0.017999999
0.0305 0.039647374 0.017999999
0.0305 0.039640561 0.017999999
0.0305 0.039633751 0.017999999
0.0305 0.039626941 0.017999999
0.0305 0.039620128 0.017999999
0.0305 0.039613318 0.017999999
0.0305 0.039606504 0.017999999
0.0305 0.039599694 0.017999999
0.0305 0.039592884 0.017999999
0.0305 0.039586071 0.017999999
0.0305 0.039579261 0.017999999
0.0305 0.039572448 0.017999999
0.0305 0.039565638 0.017999999
0.0305 0.039558828 0.017999999
0.0305 0.039552018 0.017999999
0.0305 0.039545204 0.017999999
0.0305 0.039538395 0.017999999
0.0305 0.039531581 0.017999999
0.0305 0.039524771 0.017999999
0.0305 0.039517958 0.017999999
0.0305 0.039511148 0.017999999
0.0305 0.039504338 0.017999999
0.0305 0.039497524 0.017999999
0.0305 0.039490715 0.017999999
0.0305 0.039483905 0.017999999
0.0305 0.039477091 0.017999999
0.0305 0.039470281 0.017999999
0.0305 0.039463468 0.017999999
0.0305 0.039456658 0.017999999
0.0305 0.039449848 0.017999999
0.0305 0.039443035 0.017999999
0.0305 0.039436225 0.017999999
0.0305 0.039429411 0.017999999
0.0305 0.039422601 0.017999999
0.0305 0.039415792 0.017999999
0.0305 0.039408978 0.017999999
0.0305 0.039402168 0.017999999
0.0305 0.039395355 0.017999999
0.0305 0.039388545 0.017999999
0.0305 0.039381735 0.017999999
0.0305 0.039374921 0.017999999
0.0305 0.039368112 0.017999999
0.0305 0.039361298 0.017999999
0.0305 0.039354488 0.017999999
0.0305 0.039347678 0.017999999
0.0305 0.039340865 0.017999999
0.0305 0.039334055 0.017999999
0.0305 0.039327241 0.017999999
0.0305 0.039320432 0.017999999
0.0305 0.039313622 0.017999999
0.0305 0.039306808 0.017999999
0.0305 -0.020979265 0.033073131
0.0305 -0.020958532 0.033073328
0.0305 -0.0209378 0.033073653
0.0305 -0.020917071 0.033074111
0.0305 -0.020896344 0.033074696
0.0305 -0.020875622 0.033075411
0.0305 -0.020854905 0.03307626
0.0305 -0.020834193 0.033077236
0.0305 -0.020813489 0.033078343
0.0305 -0.020792792 0.033079579
0.0305 -0.020772101 0.033080947
0.0305 -0.02075142 0.033082444
0.0305 -0.020730751 0.033084068
0.0305 -0.02071009 0.033085827
0.0305 -0.020689443 0.033087712
0.0305 -0.020668807 0.033089731
0.0305 -0.020648183 0.033091877
0.0305 -0.020627573 0.033094149
0.0305 -0.02060698 0.033096556
0.0305 -0.020586399 0.033099089
0.0305 -0.020565838 0.033101752
0.0305 -0.020545293 0.033104546
0.0305 -0.020524764 0.033107467
0.0305 -0.020504255 0.033110518
0.0305 -0.020483766 0.033113696
0.0305 -0.020463297 0.033117004
0.0305 -0.020442849 0.033120442
0.0305 -0.020422423 0.033124004
0.0305 -0.02040202 0.033127699
0.0305 -0.020381641 0.033131521
0.0305 -0.020361286 0.03313547
0.0305 -0.020340957 0.033139545
0.0305 -0.020320654 0.033143751
0.0305 -0.020300377 0.033148084
0.0305 -0.020280126 0.033152543
0.0305 -0.020259906 0.033157129
0.0305 -0.020239715 0.033161841
0.0305 -0.020219553 0.033166684
0.0305 -0.020199422 0.03317165
0.0305 -0.020179324 0.033176742
0.0305 -0.020159256 0.033181962
0.0305 -0.020139223 0.033187307
0.0305 -0.020119224 0.03319278
0.0305 -0.020099258 0.033198375
0.0305 -0.02007933 0.033204097
0.0305 -0.020059437 0.033209946
0.0305 -0.020039581 0.033215918
0.0305 -0.020019762 0.033222016
0.0305 -0.019999983 0.033228237
0.0305 -0.019980244 0.033234581
0.0305 -0.019960545 0.033241052
0.0305 -0.019940887 0.033247642
0.0305 -0.019921269 0.033254359
0.0305 -0.019901695 0.033261199
0.0305 -0.019882165 0.033268161
0.0305 -0.019862678 0.033275247
0.0305 -0.019843236 0.033282451
0.0305 -0.01982384 0.033289783
0.0305 -0.019804491 0.033297233
0.0305 -0.019785188 0.033304807
0.0305 -0.019765934 0.0333125
0.0305 -0.019746728 0.033320311
0.0305 -0.019727573 0.033328246
0.0305 -0.019708466 0.033336304
0.0305 -0.019689411 0.033344477
0.0305 -0.019670408 0.033352774
0.0305 -0.019651458 0.033361185
0.0305 -0.019632561 0.033369716
0.0305 -0.019613717 0.03337837
0.0305 -0.019594928 0.033387139
0.0305 -0.019576196 0.033396024
0.0305 -0.019557517 0.033405032
0.0305 -0.019538898 0.033414152
0.0305 -0.019520335 0.03342339
0.0305 -0.019501831 0.033432744
0.0305 -0.019483386 0.033442218
0.0305 -0.019465001 0.033451803
0.0305 -0.019446677 0.033461507
0.0305 -0.019428413 0.033471324
0.0305 -0.019410213 0.033481255
0.0305 -0.019392075 0.033491302
0.0305 -0.019374 0.033501461
0.0305 -0.019355988 0.033511735
0.0305 -0.019338043 0.033522122
0.0305 -0.019320164 0.033532619
0.0305 -0.01930235 0.033543229
0.0305 -0.019284602 0.03355395
0.0305 -0.019266924 0.033564787
0.0305 -0.019249313 0.033575732
0.0305 -0.019231772 0.033586785
0.0305 -0.0192143 0.03359795
0.0305 -0.019196898 0.033609226
0.0305 -0.019179568 0.033620607
0.0305 -0.01916231 0.0336321
0.0305 -0.019145124 0.0336437
0.0305 -0.019128012 0.033655409
0.0305 -0.019110974 0.033667225
0.0305 -0.019094009 0.033679146
0.0305 -0.01907712 0.033691175
0.0305 -0.019060308 0.033703312
0.0305 -0.019043572 0.03371555
0.0305 -0.019026913 0.033727895
0.0305 -0.019010331 0.033740345
0.0305 -0.01899383 0.0337529
0.0305 -0.018977407 0.033765554
0.0305 -0.018961063 0.033778317
0.0305 -0.0189448 0.033791177
0.0305 -0.018928619 0.033804141
0.0305 -0.018912518 0.033817209
0.0305 -0.0188965 0.033830374
0.0305 -0.018880567 0.03384364
0.0305 -0.018864715 0.033857007
0.0305 -0.018848948 0.033870474
0.0305 -0.018833267 0.033884037
0.0305 -0.018817671 0.033897702
0.0305 -0.01880216 0.033911463
0.0305 -0.018786738 0.033925321
0.0305 -0.018771401 0.033939276
0.0305 -0.018756153 0.033953324
0.0305 -0.018740995 0.033967473
0.0305 -0.018725924 0.033981711
0.0305 -0.018710943 0.033996049
0.0305 -0.018696053 0.034010477
0.0305 -0.018681254 0.034024999
0.0305 -0.018666547 0.034039617
0.0305 -0.018651932 0.034054324
0.0305 -0.018637409 0.034069121
0.0305 -0.01862298 0.034084011
0.0305 -0.018608645 0.03409899
0.0305 -0.018594403 0.034114063
0.0305 -0.018580258 0.034129221
0.0305 -0.018566206 0.034144469
0.0305 -0.018552251 0.034159806
0.0305 -0.018538393 0.034175228
0.0305 -0.018524634 0.034190737
0.0305 -0.018510969 0.034206335
0.0305 -0.018497406 0.034222018
0.0305 -0.018483939 0.034237783
0.0305 -0.018470572 0.034253635
0.0305 -0.018457307 0.034269568
0.0305 -0.01844414 0.034285586
0.0305 -0.018431075 0.034301687
0.0305 -0.018418111 0.03431787
0.0305 -0.018405247 0.034334131
0.0305 -0.018392488 0.034350473
0.0305 -0.018379832 0.034366898
0.0305 -0.018367277 0.034383401
0.0305 -0.018354829 0.034399983
0.0305 -0.018342484 0.034416638
0.0305 -0.018330244 0.034433376
0.0305 -0.018318109 0.034450188
0.0305 -0.01830608 0.034467079
0.0305 -0.018294157 0.03448404
0.0305 -0.018282343 0.034501079
0.0305 -0.018270634 0.034518193
0.0305 -0.018259034 0.034535378
0.0305 -0.018247541 0.034552637
0.0305 -0.018236157 0.034569968
0.0305 -0.018224882 0.034587368
0.0305 -0.018213717 0.03460484
0.0305 -0.018202662 0.034622382
0.0305 -0.018191718 0.034639992
0.0305 -0.018180884 0.034657672
0.0305 -0.018170161 0.034675416
0.0305 -0.018159552 0.03469323
0.0305 -0.018149052 0.034711111
0.0305 -0.018138666 0.034729056
0.0305 -0.018128393 0.034747068
0.0305 -0.018118234 0.034765143
0.0305 -0.018108187 0.034783281
0.0305 -0.018098256 0.034801483
0.0305 -0.018088439 0.034819745
0.0305 -0.018078737 0.034838069
0.0305 -0.01806915 0.034856454
0.0305 -0.018059678 0.034874897
0.0305 -0.018050322 0.034893405
0.0305 -0.018041084 0.034911964
0.0305 -0.018031962 0.034930587
0.0305 -0.018022958 0.034949262
0.0305 -0.01801407 0.034967996
0.0305 -0.0180053 0.034986787
0.0305 -0.01799665 0.035005629
0.0305 -0.017988117 0.035024527
0.0305 -0.017979704 0.035043478
0.0305 -0.017971409 0.035062481
0.0305 -0.017963234 0.035081536
0.0305 -0.01795518 0.035100639
0.0305 -0.017947245 0.035119798
0.0305 -0.017939432 0.035139002
0.0305 -0.017931737 0.035158258
0.0305 -0.017924165 0.035177559
0.0305 -0.017916715 0.035196908
0.0305 -0.017909385 0.035216305
0.0305 -0.017902179 0.035235748
0.0305 -0.017895093 0.035255231
0.0305 -0.017888131 0.035274763
0.0305 -0.017881291 0.035294335
0.0305 -0.017874576 0.035313953
0.0305 -0.017867982 0.035333611
0.0305 -0.017861513 0.03535331
0.0305 -0.017855167 0.035373051
0.0305 -0.017848946 0.035392832
0.0305 -0.01784285 0.035412647
0.0305 -0.017836878 0.035432503
0.0305 -0.017831031 0.035452396
0.0305 -0.017825309 0.035472326
0.0305 -0.017819712 0.03549229
0.0305 -0.017814239 0.035512291
0.0305 -0.017808896 0.035532326
0.0305 -0.017803675 0.03555239
0.0305 -0.017798582 0.035572492
0.0305 -0.017793614 0.035592619
0.0305 -0.017788775 0.035612784
0.0305 -0.017784061 0.035632975
0.0305 -0.017779475 0.035653196
0.0305 -0.017775014 0.035673443
0.0305 -0.017770683 0.03569372
0.0305 -0.017766478 0.035714027
0.0305 -0.0177624 0.035734355
0.0305 -0.017758451 0.03575471
0.0305 -0.017754631 0.035775088
0.0305 -0.017750937 0.035795491
0.0305 -0.017747372 0.035815917
0.0305 -0.017743936 0.035836365
0.0305 -0.017740628 0.035856836
0.0305 -0.017737448 0.035877325
0.0305 -0.017734399 0.035897832
0.0305 -0.017731477 0.035918359
0.0305 -0.017728684 0.035938904
0.0305 -0.017726021 0.035959467
0.0305 -0.017723488 0.035980046
0.0305 -0.017721083 0.036000643
0.0305 -0.017718807 0.036021251
0.0305 -0.017716661 0.036041874
0.0305 -0.017714646 0.036062509
0.0305 -0.017712759 0.036083158
0.0305 -0.017711002 0.036103819
0.0305 -0.017709374 0.03612449
0.0305 -0.017707879 0.036145169
0.0305 -0.017706512 0.03616586
0.0305 -0.017705275 0.036186557
0.0305 -0.017704168 0.036207262
0.0305 -0.01770319 0.036227971
0.0305 -0.017702345 0.036248691
0.0305 -0.017701628 0.036269411
0.0305 -0.017701043 0.036290139
0.0305 -0.017700586 0.036310866
0.0305 -0.017700261 0.036331601
0.0305 -0.017700065 0.036352333
0.0305 -0.0177 0.036373068
0.0305 -0.017700065 0.036393803
0.0305 -0.017700261 0.036414534
0.0305 -0.017700586 0.036435269
0.0305 -0.017701043 0.036455996
0.0305 -0.017701628 0.036476724
0.0305 -0.017702345 0.036497444
0.0305 -0.01770319 0.036518164
0.0305 -0.017704168 0.036538873
0.0305 -0.017705275 0.036559578
0.0305 -0.017706512 0.036580276
0.0305 -0.017707879 0.036600966
0.0305 -0.017709374 0.036621645
0.0305 -0.017711002 0.036642317
0.0305 -0.017712759 0.036662977
0.0305 -0.017714646 0.036683626
0.0305 -0.017716661 0.036704261
0.0305 -0.017718807 0.036724884
0.0305 -0.017721083 0.036745492
0.0305 -0.017723488 0.036766089
0.0305 -0.017726021 0.036786668
0.0305 -0.017728684 0.036807232
0.0305 -0.017731477 0.036827777
0.0305 -0.017734399 0.036848303
0.0305 -0.017737448 0.036868811
0.0305 -0.017740628 0.0368893
0.0305 -0.017743936 0.03690977
0.0305 -0.017747372 0.036930218
0.0305 -0.017750937 0.036950644
0.0305 -0.017754631 0.036971048
0.0305 -0.017758451 0.036991425
0.0305 -0.0177624 0.03701178
0.0305 -0.017766478 0.037032109
0.0305 -0.017770683 0.037052415
0.0305 -0.017775014 0.037072692
0.0305 -0.017779475 0.037092939
0.0305 -0.017784061 0.03711316
0.0305 -0.017788775 0.037133351
0.0305 -0.017793614 0.037153516
0.0305 -0.017798582 0.037173644
0.0305 -0.017803675 0.037193745
0.0305 -0.017808896 0.03721381
0.0305 -0.017814239 0.037233844
0.0305 -0.017819712 0.037253845
0.0305 -0.017825309 0.037273809
0.0305 -0.017831031 0.03729374
0.0305 -0.017836878 0.037313633
0.0305 -0.01784285 0.037333488
0.0305 -0.017848946 0.037353303
0.0305 -0.017855167 0.037373085
0.0305 -0.017861513 0.037392825
0.0305 -0.017867982 0.037412524
0.0305 -0.017874576 0.037432183
0.0305 -0.017881291 0.0374518
0.0305 -0.017888131 0.037471373
0.0305 -0.017895093 0.037490904
0.0305 -0.017902179 0.037510388
0.0305 -0.017909385 0.03752983
0.0305 -0.017916715 0.037549227
0.0305 -0.017924165 0.037568577
0.0305 -0.017931737 0.037587877
0.0305 -0.017939432 0.037607133
0.0305 -0.017947245 0.037626337
0.0305 -0.01795518 0.037645496
0.0305 -0.017963234 0.0376646
0.0305 -0.017971409 0.037683655
0.0305 -0.017979704 0.037702657
0.0305 -0.017988117 0.037721608
0.0305 -0.01799665 0.037740506
0.0305 -0.0180053 0.037759349
0.0305 -0.01801407 0.037778139
0.0305 -0.018022958 0.037796874
0.0305 -0.018031962 0.037815548
0.0305 -0.018041084 0.037834171
0.0305 -0.018050322 0.037852731
0.0305 -0.018059678 0.037871238
0.0305 -0.01806915 0.037889682
0.0305 -0.018078737 0.037908066
0.0305 -0.018088439 0.037926391
0.0305 -0.018098256 0.037944652
0.0305 -0.018108187 0.037962854
0.0305 -0.018118234 0.037980992
0.0305 -0.018128393 0.037999067
0.0305 -0.018138666 0.038017079
0.0305 -0.018149052 0.038035024
0.0305 -0.018159552 0.038052905
0.0305 -0.018170161 0.03807072
0.0305 -0.018180884 0.038088463
0.0305 -0.018191718 0.038106143
0.0305 -0.018202662 0.038123753
0.0305 -0.018213717 0.038141295
0.0305 -0.018224882 0.038158767
0.0305 -0.018236157 0.038176168
0.0305 -0.018247541 0.038193498
0.0305 -0.018259034 0.038210757
0.0305 -0.018270634 0.038227942
0.0305 -0.018282343 0.038245056
0.0305 -0.018294157 0.038262095
0.0305 -0.01830608 0.038279057
0.0305 -0.018318109 0.038295947
0.0305 -0.018330244 0.038312759
0.0305 -0.018342484 0.038329497
0.0305 -0.018354829 0.038346153
0.0305 -0.018367277 0.038362734
0.0305 -0.018379832 0.038379237
0.0305 -0.018392488 0.038395662
0.0305 -0.018405247 0.038412005
0.0305 -0.018418111 0.038428266
0.0305 -0.018431075 0.038444448
0.0305 -0.01844414 0.038460549
0.0305 -0.018457307 0.038476568
0.0305 -0.018470572 0.038492501
0.0305 -0.018483939 0.038508352
0.0305 -0.018497406 0.038524117
0.0305 -0.018510969 0.038539801
0.0305 -0.018524634 0.038555399
0.0305 -0.018538393 0.038570907
0.0305 -0.018552251 0.03858633
0.0305 -0.018566206 0.038601667
0.0305 -0.018580258 0.038616914
0.0305 -0.018594403 0.038632073
0.0305 -0.018608645 0.038647145
0.0305 -0.01862298 0.038662124
0.0305 -0.018637409 0.038677014
0.0305 -0.018651932 0.038691811
0.0305 -0.018666547 0.038706519
0.0305 -0.018681254 0.038721137
0.0305 -0.018696053 0.038735658
0.0305 -0.018710943 0.038750086
0.0305 -0.018725924 0.038764425
0.0305 -0.018740995 0.038778663
0.0305 -0.018756153 0.038792811
0.0305 -0.018771401 0.038806859
0.0305 -0.018786738 0.038820814
0.0305 -0.01880216 0.038834672
0.0305 -0.018817671 0.038848434
0.0305 -0.018833267 0.038862098
0.0305 -0.018848948 0.038875662
0.0305 -0.018864715 0.038889129
0.0305 -0.018880567 0.038902495
0.0305 -0.0188965 0.038915761
0.0305 -0.018912518 0.038928926
0.0305 -0.018928619 0.038941994
0.0305 -0.0189448 0.038954958
0.0305 -0.018961063 0.038967818
0.0305 -0.018977407 0.038980581
0.0305 -0.01899383 0.038993236
0.0305 -0.019010331 0.03900579
0.0305 -0.019026913 0.03901824
0.0305 -0.019043572 0.039030585
0.0305 -0.019060308 0.039042823
0.0305 -0.01907712 0.03905496
0.0305 -0.019094009 0.039066989
0.0305 -0.019110974 0.03907891
0.0305 -0.019128012 0.039090727
0.0305 -0.019145124 0.039102435
0.0305 -0.01916231 0.039114036
0.0305 -0.019179568 0.039125528
0.0305 -0.019196898 0.039136909
0.0305 -0.0192143 0.039148185
0.0305 -0.019231772 0.03915935
0.0305 -0.019249313 0.039170403
0.0305 -0.019266924 0.039181348
0.0305 -0.019284602 0.039192185
0.0305 -0.01930235 0.039202906
0.0305 -0.019320164 0.039213516
0.0305 -0.019338043 0.039224014
0.0305 -0.019355988 0.0392344
0.0305 -0.019374 0.039244674
0.0305 -0.019392075 0.039254833
0.0305 -0.019410213 0.03926488
0.0305 -0.019428413 0.039274812
0.0305 -0.019446677 0.039284628
0.0305 -0.019465001 0.039294332
0.0305 -0.019483386 0.039303917
0.0305 -0.019501831 0.039313391
0.0305 -0.019520335 0.039322745
0.0305 -0.019538898 0.039331984
0.0305 -0.019557517 0.039341103
0.0305 -0.019576196 0.039350111
0.0305 -0.019594928 0.039358996
0.0305 -0.019613717 0.039367765
0.0305 -0.019632561 0.039376419
0.0305 -0.019651458 0.03938495
0.0305 -0.019670408 0.039393362
0.0305 -0.019689411 0.039401658
0.0305 -0.019708466 0.039409831
0.0305 -0.019727573 0.039417889
0.0305 -0.019746728 0.039425824
0.0305 -0.019765934 0.039433636
0.0305 -0.019785188 0.039441328
0.0305 -0.019804491 0.039448902
0.0305 -0.01982384 0.039456353
0.0305 -0.019843236 0.039463684
0.0305 -0.019862678 0.039470889
0.0305 -0.019882165 0.039477974
0.0305 -0.019901695 0.039484937
0.0305 -0.019921269 0.039491776
0.0305 -0.019940887 0.039498493
0.0305 -0.019960545 0.039505083
0.0305 -0.019980244 0.039511554
0.0305 -0.019999983 0.039517898
0.0305 -0.020019762 0.039524119
0.0305 -0.020039581 0.039530218
0.0305 -0.020059437 0.039536189
0.0305 -0.02007933 0.039542038
0.0305 -0.020099258 0.03954776
0.0305 -0.020119224 0.039553355
0.0305 -0.020139223 0.039558828
0.0305 -0.020159256 0.039564174
0.0305 -0.020179324 0.039569393
0.0305 -0.020199422 0.039574485
0.0305 -0.020219553 0.039579451
0.0305 -0.020239715 0.039584294
0.0305 -0.020259906 0.039589006
0.0305 -0.020280126 0.039593592
0.0305 -0.020300377 0.039598051
0.0305 -0.020320654 0.039602384
0.0305 -0.020340957 0.03960659
0.0305 -0.020361286 0.039610665
0.0305 -0.020381641 0.039614614
0.0305 -0.02040202 0.039618436
0.0305 -0.020422423 0.039622132
0.0305 -0.020442849 0.039625693
0.0305 -0.020463297 0.039629132
0.0305 -0.020483766 0.03963244
0.0305 -0.020504255 0.039635617
0.0305 -0.020524764 0.039638668
0.0305 -0.020545293 0.039641589
0.0305 -0.020565838 0.039644383
0.0305 -0.020586399 0.039647046
0.0305 -0.02060698 0.03964958
0.0305 -0.020627573 0.039651986
0.0305 -0.020648183 0.039654259
0.0305 -0.020668807 0.039656404
0.0305 -0.020689443 0.039658424
0.0305 -0.02071009 0.039660309
0.0305 -0.020730751 0.039662067
0.0305 -0.02075142 0.039663691
0.0305 -0.020772101 0.039665189
0.0305 -0.020792792 0.039666556
0.0305 -0.020813489 0.039667793
0.0305 -0.020834193 0.039668899
0.0305 -0.020854905 0.039669875
0.0305 -0.020875622 0.039670724
0.0305 -0.020896344 0.03967144
0.0305 -0.020917071 0.039672025
0.0305 -0.0209378 0.039672483
0.0305 -0.020958532 0.039672807
0.0305 -0.020979265 0.039673004
0.0305 -0.021 0.039673068
0.0305 -0.021020735 0.039673004
0.0305 -0.021041468 0.039672807
0.0305 -0.021062199 0.039672483
0.0305 -0.021082928 0.039672025
0.0305 -0.021103656 0.03967144
0.0305 -0.021124378 0.039670724
0.0305 -0.021145094 0.039669875
0.0305 -0.021165807 0.039668899
0.0305 -0.02118651 0.039667793
0.0305 -0.021207208 0.039666556
0.0305 -0.021227898 0.039665189
0.0305 -0.021248579 0.039663691
0.0305 -0.021269249 0.039662067
0.0305 -0.021289909 0.039660309
0.0305 -0.021310557 0.039658424
0.0305 -0.021331193 0.039656404
0.0305 -0.021351816 0.039654259
0.0305 -0.021372426 0.039651986
0.0305 -0.02139302 0.03964958
0.0305 -0.0214136 0.039647046
0.0305 -0.021434162 0.039644383
0.0305 -0.021454707 0.039641589
0.0305 -0.021475235 0.039638668
0.0305 -0.021495745 0.039635617
0.0305 -0.021516234 0.03963244
0.0305 -0.021536702 0.039629132
0.0305 -0.02155715 0.039625693
0.0305 -0.021577576 0.039622132
0.0305 -0.02159798 0.039618436
0.0305 -0.021618359 0.039614614
0.0305 -0.021638714 0.039610665
