# .PCD v0.7 - Point Cloud Data file format
VERSION 0.7
FIELDS x y z
SIZE 4 4 4
TYPE F F F
COUNT 1 1 1
WIDTH 1295
HEIGHT 1
VIEWPOINT 0 0 0 1 0 0 0
POINTS 1295
DATA ascii
0.00014706313 -0.031883989 0.022907797
-4.6701636e-05 0.031129625 0.023532366
0.00061634509 -0.032182433 0.022820586
0.00063189375 -0.031818036 0.02284563
0.00048762327 0.031116461 0.023581062
0.0011248286 -0.032179825 0.022825601
0.0011351001 -0.031807486 0.022850936
0.00096497638 0.031082539 0.023584226
0.0016443044 -0.032233309 0.022861909
0.0016619588 -0.031793602 0.022819182
0.0014261738 0.031154932 0.023593944
0.0021472927 -0.032211553 0.022859609
0.0021869435 -0.031809881 0.022786034
0.0019339938 0.031204481 0.023560528
0.0024327801 -0.032668408 0.022681914
0.0027193648 -0.032226276 0.022892807
0.0026141761 -0.031860083 0.022821216
0.002451478 0.031211386 0.02352584
0.0031296988 -0.032259271 0.022843232
0.0031481935 -0.031879194 0.022843959
0.0029020344 0.031274457 0.023537645
0.0036531817 -0.03228179 0.022823276
0.0036747735 -0.031888954 0.022865502
0.0034030643 0.031250879 0.023547474
0.0034927537 0.031781584 0.023525694
0.0040852865 -0.032278113 0.02283622
0.0040973057 -0.031861767 0.022895504
0.0039482834 0.031256154 0.023552047
0.0039479686 0.031628102 0.023515347
0.0045713428 -0.032238048 0.02284584
0.0046032406 -0.031795375 0.022815619
0.004458176 0.031276643 0.023533715
0.0044670021 0.031496644 0.023543892
0.0051300963 -0.032275263 0.022856025
0.0051140878 -0.031853329 0.022830525
0.0049730376 0.031280015 0.023545444
0.0056370641 -0.032308206 0.022829574
0.0056193527 -0.031823091 0.022850942
0.0054209838 0.031249391 0.023524508
0.0061309962 -0.032291181 0.022847585
0.0061468361 -0.031776775 0.022858117
0.0059121074 0.031236539 0.023524759
0.0065806219 -0.032232638 0.022829704
0.0066661942 -0.031764492 0.022846814
0.0063835941 0.031227829 0.023515407
0.0071845595 -0.032165207 0.022823984
0.0071723536 -0.031758402 0.022876229
0.0068893861 0.031225083 0.023476159
0.0076984367 -0.032136545 0.022782575
0.0076220669 -0.031775851 0.022830563
0.0074547762 0.031198286 0.023521747
0.0080797728 -0.032100469 0.022840913
0.0081250183 -0.031813178 0.022873577
0.0079136454 0.031189531 0.023514109
0.0086392369 -0.032134529 0.022793775
0.0085981423 -0.031831823 0.022836229
0.008445954 0.03114232 0.023507144
0.0091331946 -0.032219786 0.022803806
0.0091672987 -0.031796694 0.022842146
0.0089542437 0.031165576 0.023496464
0.00964012 -0.032197453 0.022790043
0.0095956521 -0.031853747 0.022834364
0.0094705075 0.031163314 0.023526451
0.010120484 -0.032153744 0.022770705
0.01012199 -0.031764485 0.022807235
0.0099622272 0.031203968 0.023514254
0.010428702 -0.032556865 0.022565532
0.010648696 -0.032152243 0.02284079
0.010653435 -0.031789839 0.022817699
0.010481248 0.031211536 0.023490096
0.010507674 0.031519119 0.023674512
0.011179683 -0.03215884 0.022795282
0.011166555 -0.031769719 0.022789428
0.010953149 0.031259347 0.023490602
0.011654757 -0.032165416 0.022815848
0.011608116 -0.03174055 0.022831697
0.011416867 0.031251714 0.023512157
0.012127204 -0.032170571 0.02279244
0.012151691 -0.03179571 0.022805532
0.011882477 0.031313762 0.023533562
0.012032688 0.031505052 0.023434928
0.012602767 -0.032203894 0.022749614
0.012618106 -0.031773981 0.022830818
0.012408776 0.031297445 0.023513457
0.012539714 0.031518154 0.023313146
0.013174947 -0.032131013 0.022818681
0.013090126 -0.031768043 0.022833958
0.012923112 0.031288143 0.023524938
0.012956886 0.031515405 0.023420613
0.013612577 -0.032165103 0.022790067
0.013612956 -0.031853244 0.022799522
0.013453717 0.031181069 0.023498887
0.013429491 0.031559862 0.023466805
0.014172949 -0.032269616 0.022769183
0.014144775 -0.031856459 0.02280377
0.013918845 0.031194896 0.023495156
0.013903366 0.031568911 0.023479441
0.014634374 -0.032242939 0.02280385
0.014701454 -0.031824276 0.022744128
0.014400246 0.031244487 0.023459701
0.014370752 0.031554636 0.023537017
0.015170784 -0.032202389 0.02277804
0.015170145 -0.03183062 0.022779144
0.014895679 0.031225359 0.023435775
0.01490204 0.031553552 0.023553398
0.015649738 -0.032152377 0.022752229
0.015628142 -0.031828169 0.022804039
0.015393317 0.031201521 0.023461211
0.015370975 0.031595737 0.023484986
0.016127326 -0.032207567 0.022782801
0.016101005 -0.031919483 0.02275731
0.015967412 0.031276967 0.023464654
0.01599104 0.031655431 0.023491438
0.016629595 -0.032170787 0.022748113
0.016636018 -0.031902548 0.022757618
0.01645666 0.031283662 0.023436472
0.016440598 0.031623144 0.023489006
0.017185891 -0.032173589 0.022850512
0.017134018 -0.031903218 0.022764068
0.016944489 0.03134945 0.023494532
0.016935825 0.031577799 0.023479223
0.017599972 -0.03217705 0.022739008
0.017646044 -0.031910203 0.022734381
0.017435525 0.031348016 0.023482997
0.017409584 0.031576451 0.023482598
0.018125763 -0.03215871 0.022767954
0.018113051 -0.031907074 0.022769863
0.017901303 0.03141889 0.023406344
0.0181781 0.03152721 0.023208439
0.018707667 -0.032058954 0.022687839
0.018565701 -0.031894177 0.022762502
0.018346282 0.031385109 0.023427656
0.01844033 0.031504188 0.023220589
0.01915654 -0.032075178 0.022767605
0.019151619 -0.031805631 0.022702483
0.01894369 0.031364996 0.023432527
0.019612875 -0.032079499 0.02274614
0.019434541 -0.031765558 0.022739708
0.019392619 0.031341746 0.023439206
0.020106133 -0.032165173 0.022766294
0.020343088 -0.031994995 0.022601161
0.019906823 0.031348094 0.02343498
0.020717792 -0.032616075 0.022821058
0.020607281 -0.032153159 0.02275626
0.020727191 -0.031924825 0.022795577
0.020458201 0.031342089 0.023402683
0.02106275 -0.03272786 0.022702388
0.021144172 -0.032112677 0.022783142
0.021133741 -0.031876229 0.022689987
0.02091714 0.031311456 0.023460358
0.021001143 0.031543642 0.023447916
0.021648413 -0.032106873 0.022724768
0.021712285 -0.031852234 0.022750286
0.021521531 0.031318087 0.023424743
0.021437597 0.031547632 0.023435608
0.022152936 -0.032192543 0.022753187
0.02216899 -0.031890564 0.022725511
0.021954784 0.03127965 0.023414604
0.021951037 0.031603165 0.023408379
0.022625901 -0.032232095 0.022762891
0.022651957 -0.031832628 0.022743687
0.022414865 0.031269535 0.023445655
0.022513999 0.031609278 0.023429921
0.023105837 -0.032499697 0.022514328
0.02300809 -0.032312427 0.022710051
0.023138195 -0.03165881 0.02274007
0.023200367 -0.031256706 0.022765309
0.023362502 -0.026830561 0.022593852
0.023311112 -0.025673173 0.022764008
0.023270922 -0.025254769 0.022770682
0.023264874 -0.024732903 0.022852506
0.023245078 -0.024263874 0.022808367
0.023280947 -0.023739465 0.022823673
0.023343462 -0.023191752 0.022818387
0.023356365 -0.022877863 0.022946846
0.023308599 -0.014251329 0.022980304
0.023250826 -0.013793779 0.023001587
0.023237687 -0.013284107 0.022949122
0.02322631 -0.012802107 0.022961568
0.023238041 -0.012330257 0.022925368
0.023251645 -0.0117858 0.022965359
0.023239223 -0.011203738 0.022921575
0.023263961 -0.010679776 0.023009585
0.02330358 -0.010468222 0.022842379
0.023283867 0.00029737956 0.023192016
0.023205096 0.00066445954 0.023086676
0.023245517 0.0044979099 0.02327797
0.023206929 0.0046599694 0.023137445
0.023137055 0.01723822 0.023257386
0.023182934 0.029781362 0.023564745
0.023088818 0.030268192 0.02341532
0.023070788 0.030819332 0.023373412
0.022849299 0.031170396 0.023388505
0.023549452 -0.032249749 0.022702605
0.023558808 -0.031671107 0.022747343
0.023412993 -0.031008027 0.022798834
0.023560626 -0.030739857 0.022741403
0.023629328 -0.030261524 0.022740632
0.023717832 -0.029722881 0.022786317
0.023717696 -0.029251805 0.022747178
0.023696108 -0.028740138 0.022766091
0.023531413 -0.028200613 0.022757757
0.023445565 -0.027679635 0.022783231
0.023506712 -0.02717251 0.022793289
0.023544444 -0.026726378 0.022793286
0.023602551 -0.026211627 0.022768879
0.023651952 -0.025738429 0.022790289
0.023681404 -0.025244469 0.022837797
0.023571329 -0.024765596 0.022783404
0.023652984 -0.024238346 0.022793604
0.023594385 -0.023745956 0.022775261
0.023626205 -0.023217047 0.022839025
0.023645042 -0.022761632 0.022825008
0.023610992 -0.022234678 0.022843624
0.023640033 -0.021699535 0.022834616
0.02364978 -0.021237126 0.022832124
0.023607649 -0.020751271 0.02285642
0.023710357 -0.020228863 0.022855235
0.02366549 -0.019782797 0.022850025
0.023676965 -0.019266961 0.022857865
0.023610935 -0.01872896 0.022900112
0.023662467 -0.018309947 0.02291262
0.023687836 -0.01779086 0.02285354
0.023647098 -0.017290723 0.022869058
0.023679724 -0.016770672 0.022880122
0.023664124 -0.016230293 0.022912979
0.023638995 -0.015712984 0.022905793
0.023662789 -0.015204285 0.022951057
0.023631556 -0.014737715 0.022946602
0.023631902 -0.014280809 0.02294402
0.023712732 -0.013698251 0.022924377
0.023708146 -0.013186043 0.022941424
0.023633294 -0.012699938 0.022986613
0.023570787 -0.012219761 0.022988938
0.023595704 -0.011698131 0.022987932
0.023587748 -0.011206283 0.022950042
0.023630306 -0.010699274 0.022960542
0.023578195 -0.010215583 0.022990752
0.023504786 -0.0097864894 0.023001324
0.023578245 -0.0092652133 0.022974398
0.023670228 -0.008752292 0.022968195
0.023716647 -0.008271575 0.023022393
0.023651099 -0.0077482508 0.023003638
0.023621533 -0.0072637564 0.022999987
0.023574645 -0.006739452 0.023003399
0.023527535 -0.0062235286 0.022980116
0.023515496 -0.0057038409 0.023009345
0.023520987 -0.0052607823 0.023012042
0.023627561 -0.0047180005 0.022996193
0.023592832 -0.0042405669 0.023052534
0.02356478 -0.0038019107 0.023036247
0.023577025 -0.0032433541 0.023104258
0.023593143 -0.0027021351 0.023061885
0.023595512 -0.002248243 0.023063693
0.023609914 -0.0017410346 0.023017792
0.023634937 -0.0012379929 0.02302002
0.023594119 -0.00074548065 0.023057759
0.023594089 -0.00026518432 0.023099147
0.02357414 0.00025056419 0.023076177
0.023587309 0.00072707841 0.023072993
0.023602106 0.0012389309 0.023118084
0.023619518 0.0017570446 0.02307063
0.023593891 0.0022963148 0.023102436
0.023582285 0.0027963948 0.023160029
0.023560693 0.0032753902 0.023141026
0.023585603 0.0037192251 0.023123574
0.023556404 0.0042572273 0.023115046
0.023596678 0.0047350912 0.023113124
0.023621449 0.005267913 0.023162331
0.023588421 0.0057692756 0.023128461
0.023588389 0.0062496918 0.023167068
0.023558997 0.0067771957 0.023168018
0.023584727 0.0072656502 0.023183852
0.023573622 0.007764285 0.023163328
0.023529973 0.0082655428 0.023179309
0.023534421 0.0087106759 0.023202492
0.02356684 0.0092667285 0.023248779
0.023582945 0.0097967926 0.023225442
0.023531616 0.010290274 0.023187255
0.023523998 0.010709824 0.02319151
0.023508713 0.011246513 0.023191482
0.023511808 0.011773118 0.023201792
0.023475032 0.012284232 0.023236321
0.02351917 0.012750394 0.023188284
0.023538515 0.013224088 0.023220005
0.023545088 0.01369769 0.023241768
0.023543999 0.014255381 0.023238607
0.023591932 0.014767666 0.023235245
0.02358315 0.015302572 0.023262173
0.023540895 0.015760802 0.023293553
0.02356362 0.016280292 0.02328827
0.023405354 0.016757531 0.02320705
0.023698512 0.01718004 0.023105696
0.023705874 0.017718874 0.023238944
0.023562143 0.01833177 0.023271188
0.023550441 0.018856715 0.023250064
0.023689523 0.019305611 0.023253581
0.023699118 0.019683953 0.023289818
0.023699798 0.020148385 0.023225479
0.023696665 0.021901347 0.023308825
0.023676896 0.022350198 0.023360979
0.023682287 0.022785764 0.0233433
0.023678428 0.023305697 0.023358067
0.023636075 0.02388446 0.023388196
0.023639163 0.024317071 0.023382178
0.023627209 0.024733404 0.023361126
0.023510054 0.025203105 0.023440337
0.023532761 0.025764516 0.023385586
0.023594942 0.026333677 0.023375614
0.023628442 0.026818156 0.023372233
0.023568535 0.027290069 0.023398437
0.023548681 0.027784642 0.023362493
0.023511007 0.028253987 0.023397323
0.023440463 0.028727662 0.023427108
0.023412865 0.029282354 0.023398027
0.023411572 0.029764805 0.023361534
0.023394734 0.03023994 0.023417717
0.023407944 0.03075733 0.023398567
0.023573687 0.031271208 0.023450216
0.023602139 0.03170944 0.023479782
0.024216114 -0.031136112 0.022667432
0.024080172 -0.03071565 0.022703752
0.02397966 -0.030155815 0.022709787
0.024132909 -0.029701887 0.022783363
0.024134953 -0.02916353 0.02272588
0.023920966 -0.02879275 0.022718469
0.023947949 -0.028141828 0.022777215
0.024017926 -0.027728941 0.022783065
0.024055859 -0.027441856 0.022823175
0.023899509 -0.025244394 0.022706525
0.023930592 -0.024765838 0.022759072
0.024012228 -0.024188437 0.022785215
0.024017608 -0.023738386 0.022869796
0.023912977 -0.023282837 0.022814251
0.023932556 -0.022718623 0.022800237
0.023888683 -0.022197787 0.022828603
0.023883734 -0.021638419 0.022781471
0.023908554 -0.021256277 0.022819486
0.024008552 -0.02068801 0.022854254
0.023986535 -0.020215042 0.022808002
0.024013927 -0.019729905 0.022862431
0.024036048 -0.01924902 0.022860561
0.024017146 -0.018718097 0.022847019
0.02399138 -0.018226428 0.02287901
0.024008898 -0.017713612 0.022895414
0.023922885 -0.017200645 0.02296235
0.023850974 -0.016694713 0.022973785
0.023860825 -0.016317636 0.022788916
0.023868881 -0.015732052 0.022984616
0.023948975 -0.015243628 0.022906113
0.023918349 -0.014716813 0.022957956
0.023917822 -0.014272057 0.022941286
0.023968376 -0.013697355 0.022912037
0.023900509 -0.013299005 0.022951424
0.023935247 -0.012740132 0.022979835
0.023965437 -0.012264937 0.022923987
0.023978144 -0.011752218 0.022950504
0.024043115 -0.011190813 0.022966804
0.023992337 -0.010724458 0.02299438
0.023920305 -0.010171824 0.022964582
0.023926955 -0.0097314939 0.022914704
0.023926798 -0.0092639513 0.022952506
0.023844019 -0.0088464646 0.023074897
0.023822958 -0.0084583089 0.022783868
0.023841336 -0.0077147172 0.022984663
0.023840114 -0.0072057834 0.02302886
0.023876103 -0.0067071994 0.022991734
0.023906793 -0.0063405009 0.022968814
0.023917468 -0.0057370882 0.023009762
0.023988435 -0.0052476842 0.023012385
0.023899272 -0.0047515985 0.023036642
0.023878738 -0.0042083426 0.023040827
0.023936303 -0.0037678909 0.023092266
0.023981858 -0.0032725537 0.023017734
0.024085265 -0.0027708663 0.023037121
0.024019616 -0.002281649 0.023009812
0.023840748 -0.0018345931 0.022955148
0.023844879 -0.0012540632 0.023067608
0.02381639 -0.00069857709 0.023029068
0.023789749 0.00050862285 0.023172658
0.023815107 0.00084784406 0.023147225
0.023871133 0.0012607761 0.023100626
0.0238338 0.001734256 0.023045862
0.02383719 0.0022742602 0.023091439
0.023838013 0.0028487816 0.02307885
0.023851058 0.0032945978 0.023111612
0.023833442 0.0036972472 0.023144295
0.02380779 0.0042246208 0.023133777
0.023800233 0.0047847163 0.023102457
0.023828231 0.0053588371 0.023114042
0.023829957 0.0058213533 0.023132371
0.023837231 0.0062865964 0.02312322
0.02384006 0.0067769634 0.023187423
0.023856793 0.007283486 0.023198016
0.023851134 0.0077465093 0.023182847
0.023843218 0.008165719 0.023179989
0.023826553 0.0086891074 0.023127703
0.023791619 0.0092633134 0.023195185
0.02375851 0.0097236419 0.022940414
0.023761082 0.010841223 0.023238605
0.023777736 0.011329306 0.02321158
0.023844251 0.011737255 0.023216173
0.023808064 0.012193763 0.02328258
0.023798188 0.012763002 0.023294572
0.023791021 0.013318213 0.023201941
0.023801502 0.013833706 0.023208473
0.023819964 0.014284644 0.023327569
0.023800535 0.01480286 0.023261227
0.023823839 0.0152794 0.023200899
0.023816148 0.01582065 0.023270993
0.023825957 0.01634297 0.023298938
0.023873042 0.016816981 0.023261128
0.023837358 0.017253106 0.02325188
0.023860313 0.017762773 0.02323829
0.023850683 0.018237153 0.023313077
0.023846677 0.01871226 0.023284415
0.023858314 0.019276295 0.023313204
0.023849193 0.019805819 0.02332199
0.0238271 0.020325731 0.023306763
0.023811214 0.020738844 0.023349911
0.023777498 0.021255866 0.023288835
0.023811016 0.021756768 0.023292655
0.023793897 0.022295944 0.0233097
0.023813006 0.022746189 0.023347951
0.023803821 0.023209812 0.023299469
0.023770427 0.023713846 0.023346622
0.023785599 0.024285901 0.023354648
0.023781793 0.024785597 0.023383636
0.023784943 0.025309626 0.023360468
0.02376789 0.025787152 0.023277877
0.023789028 0.026267679 0.023350071
0.023810672 0.026766181 0.023397708
0.02384246 0.027292976 0.023395907
0.023853268 0.02781217 0.023367723
0.023909379 0.028243411 0.023352869
0.023867454 0.028828189 0.023367142
0.023901369 0.029297004 0.023411814
0.023885302 0.029755469 0.023402968
0.023882214 0.030154521 0.023438441
-0.024329608 -0.031429015 0.022579107
-0.024191653 -0.011603957 0.022749966
-0.02433404 0.030859485 0.023383996
-0.023829103 -0.033292342 0.022469886
-0.023789622 -0.0328825 0.022473086
-0.0237191 -0.032370638 0.022481289
-0.02366058 -0.031875875 0.022471307
-0.023933675 -0.031553686 0.022491131
-0.023912769 -0.029681319 0.022591688
-0.023878928 -0.029318789 0.022565011
-0.023849184 -0.028828355 0.02252621
-0.023842474 -0.02832731 0.022482745
-0.02379803 -0.027866591 0.022605062
-0.023793183 -0.027339723 0.022625543
-0.023810452 -0.026830416 0.0225771
-0.023828175 -0.026322266 0.022528682
-0.02383922 -0.025815321 0.02259231
-0.023850746 -0.025309516 0.022655664
-0.02382401 -0.024826691 0.022616619
-0.023739466 -0.024331726 0.022624206
-0.023725681 -0.023885325 0.022548195
-0.023703832 -0.02342576 0.022576589
-0.023663569 -0.02295059 0.022628527
-0.02368141 -0.022425806 0.022644075
-0.023702895 -0.021927167 0.022595271
-0.023758704 -0.021388136 0.022602862
-0.023733642 -0.020974727 0.022686362
-0.023659132 -0.020520704 0.022730531
-0.023666715 -0.018671719 0.022415254
-0.023739778 -0.01640936 0.02270156
-0.023828004 -0.015963137 0.022441907
-0.024110597 -0.011639792 0.02255436
-0.024074517 -0.011350864 0.022777239
-0.023914995 -0.010901 0.022732705
-0.02378073 -0.010441249 0.022713173
-0.023698499 -0.0073088054 0.022711961
-0.023766479 -0.006860299 0.022774823
-0.023818733 -0.0063895006 0.022779364
-0.023830522 -0.0059127421 0.022792034
-0.023796668 -0.0053458782 0.0227721
-0.023834925 -0.0048361691 0.022836465
-0.023851721 -0.0044218702 0.022825575
-0.023884367 -0.0038853998 0.022812961
-0.023922937 -0.0034296964 0.022762435
-0.023955246 -0.0029751896 0.022817384
-0.023998022 -0.0024087261 0.022859363
-0.024023836 -0.001851278 0.022801053
-0.024017168 -0.0014129722 0.022863802
-0.023949306 -0.00088670861 0.022825457
-0.023854639 -0.00033040578 0.022927217
-0.023824325 2.3509027e-05 0.022898521
-0.023864746 0.00054435129 0.022978399
-0.023970928 0.0017290616 0.022980882
-0.02391216 0.002033727 0.022859238
-0.023951516 0.0026294461 0.022946149
-0.023932213 0.0031117527 0.022905109
-0.023809286 0.0034002464 0.022902098
-0.023958938 0.0075617232 0.022920441
-0.02388793 0.0080493605 0.023007916
-0.023809569 0.0086164009 0.023006953
-0.023842674 0.0091431662 0.022979662
-0.023869313 0.0096143503 0.023001449
-0.023881588 0.010117292 0.022980759
-0.02384823 0.010629136 0.022994658
-0.023835812 0.011134985 0.022990663
-0.023829114 0.011640609 0.022941533
-0.023787161 0.012198785 0.022919837
-0.023794711 0.012758519 0.022954877
-0.023824224 0.0132364 0.022967853
-0.02383567 0.013652194 0.022960864
-0.023840532 0.014069881 0.023057645
-0.023855742 0.01456314 0.023023404
-0.023778114 0.015172726 0.022921616
-0.023783034 0.015576747 0.023011787
-0.023794146 0.01607682 0.023044933
-0.023808446 0.016596932 0.023036188
-0.023822753 0.01711702 0.023027446
-0.023915559 0.017586747 0.02300695
-0.023841918 0.018055169 0.023115559
-0.023942497 0.018593224 0.02309927
-0.023922874 0.019089866 0.02305516
-0.023922438 0.019508125 0.023083551
-0.023922427 0.020190435 0.023078609
-0.023921551 0.02064394 0.023097137
-0.023877552 0.021098234 0.023083448
-0.023839921 0.021569252 0.023147827
-0.023792922 0.022847494 0.023283679
-0.023857545 0.023237787 0.023229966
-0.023920586 0.023626834 0.02320892
-0.023916427 0.024197208 0.023118142
-0.023911051 0.024558403 0.023086067
-0.023811838 0.02513946 0.022894707
-0.023819055 0.025514092 0.023241173
-0.023859108 0.029200569 0.023278145
-0.023984469 0.029558329 0.023188472
-0.024090324 0.030796457 0.02317192
-0.02390993 0.03114114 0.023237152
-0.023116471 -0.032980405 0.022564733
-0.023246098 -0.032409221 0.022479123
-0.023350079 -0.031821985 0.022488853
-0.023382217 -0.031359915 0.022488013
-0.02346722 -0.030886486 0.022484573
-0.023512205 -0.030405898 0.022519577
-0.023516089 -0.029860122 0.022513527
-0.023530468 -0.029385207 0.022484906
-0.023538137 -0.028866667 0.022579376
-0.023552349 -0.028350035 0.02257069
-0.02347542 -0.027880952 0.022577342
-0.023411028 -0.027418634 0.022558257
-0.023342375 -0.026871853 0.022591945
-0.023396567 -0.026399318 0.022537751
-0.023456078 -0.025892669 0.022515323
-0.02351997 -0.025378034 0.022583691
-0.023587691 -0.024902744 0.022586433
-0.023573253 -0.024514211 0.022542858
-0.023448151 -0.023900263 0.022643134
-0.023409514 -0.023364211 0.02269333
-0.023256801 -0.022858806 0.022669692
-0.023203418 -0.022338262 0.022674467
-0.023240183 -0.02192436 0.022662444
-0.023318194 -0.021401007 0.022638075
-0.023372255 -0.020882044 0.022633983
-0.023478856 -0.020340268 0.022633074
-0.023477256 -0.019868167 0.022665549
-0.02346627 -0.019377684 0.022647662
-0.023453346 -0.018855304 0.022663545
-0.023419837 -0.018356165 0.022657264
-0.023395488 -0.017935306 0.022700043
-0.02345263 -0.017337712 0.02268232
-0.023465013 -0.0168972 0.022703007
-0.023411404 -0.016443277 0.022676025
-0.023475029 -0.015914353 0.022649638
-0.023482723 -0.015394271 0.022744395
-0.023496969 -0.01487609 0.022735683
-0.023502428 -0.014357617 0.022735555
-0.023498347 -0.013831593 0.022666553
-0.023533337 -0.013386065 0.022663664
-0.023519445 -0.012867359 0.022701789
-0.023455424 -0.012382398 0.02271753
-0.023472983 -0.011873862 0.022709457
-0.023492655 -0.011340901 0.022696735
-0.023374487 -0.010891307 0.022755431
-0.023460522 -0.010389891 0.022769483
-0.023466213 -0.0099171177 0.022775698
-0.023419181 -0.0094644241 0.022726899
-0.023415238 -0.0089014936 0.022758327
-0.023451269 -0.008383817 0.022769541
-0.023543457 -0.0079077967 0.022779958
-0.023578627 -0.0074350415 0.022832694
-0.023592696 -0.0070103388 0.022847617
-0.023605419 -0.0064060055 0.022782007
-0.023630774 -0.0057978099 0.022879589
-0.02359112 -0.0051731318 0.023039922
-0.023507174 -0.0048738145 0.02286998
-0.023574941 -0.0043785553 0.02280741
-0.023610806 -0.0038968066 0.022815095
-0.023535136 -0.0033996953 0.022835819
-0.023549216 -0.0029269806 0.022821028
-0.023522761 -0.0023812526 0.022794535
-0.023483654 -0.0019565006 0.022797758
-0.023447435 -0.0014274907 0.022799145
-0.02345835 -0.0008858362 0.022852324
-0.023469446 -0.00038611202 0.022885446
-0.023483744 0.00013360404 0.022876708
-0.023512706 0.0005904705 0.02283643
-0.023508543 0.0010955646 0.022886487
-0.023523754 0.0015888233 0.022852244
-0.023533475 0.0020799646 0.022903305
-0.023545781 0.0026302093 0.022938546
-0.023552664 0.0030837534 0.022855856
-0.02362109 0.003643963 0.022944063
-0.023623966 0.0041124178 0.022895766
-0.023614677 0.0045624007 0.022892606
-0.02361439 0.0051248758 0.022896608
-0.023628689 0.005644585 0.022887869
-0.023542676 0.0061741648 0.02284741
-0.023599181 0.0066107004 0.022904642
-0.023603044 0.0070922403 0.02293339
-0.023537464 0.0076057096 0.022943387
-0.02356286 0.0081329821 0.022990312
-0.023706565 0.0086336182 0.022946881
-0.023549967 0.0091110952 0.023127615
-0.023465328 0.0095914649 0.02301231
-0.023479953 0.010112845 0.023147328
-0.023561707 0.010581148 0.023158778
-0.023587231 0.011212578 0.023165017
-0.023613444 0.011566726 0.023151081
-0.023705773 0.012083245 0.023140935
-0.023743704 0.01261694 0.023065386
-0.023620974 0.013131533 0.0230128
-0.023518188 0.013638793 0.023001608
-0.023470499 0.014054942 0.023028778
-0.023746647 0.014832398 0.023273617
-0.023758668 0.015108515 0.023199722
-0.023763815 0.015456535 0.023263128
-0.023767879 0.018815374 0.023019919
-0.023769882 0.019129591 0.023118595
-0.023700286 0.019589793 0.023129808
-0.02350794 0.020098852 0.023101237
-0.023467358 0.020627111 0.023112729
-0.023585118 0.021112395 0.02303388
-0.02356207 0.021639183 0.023123885
-0.023670351 0.022109425 0.023122856
-0.02365512 0.022589996 0.023144452
-0.023574121 0.023092508 0.023115288
-0.023588464 0.023614183 0.023106519
-0.023703355 0.024097957 0.023077285
-0.023752131 0.024582511 0.023150008
-0.023777602 0.025111709 0.023159273
-0.023755742 0.025739374 0.023152258
-0.023752332 0.026110109 0.023172274
-0.023655046 0.026636098 0.023143712
-0.023525661 0.027159223 0.023187824
-0.023593199 0.027631991 0.023155708
-0.023649389 0.028106822 0.023160242
-0.023697464 0.028668754 0.023198919
-0.0237369 0.02903107 0.02325636
-0.023703318 0.029598808 0.023259705
-0.023525301 0.030121164 0.023226725
-0.023668088 0.030640978 0.023174878
-0.023543175 0.031129321 0.023224408
-0.022881661 -0.033301566 0.02249898
-0.023028309 -0.032945424 0.022471793
-0.02271766 -0.03232418 0.022476679
-0.022860972 -0.031951401 0.022476463
-0.02303493 -0.031629756 0.022664484
-0.023060687 0.018787846 0.023195898
-0.023151778 0.019128012 0.023087701
-0.023225296 0.019596089 0.023056205
-0.023255646 0.020018611 0.022898279
-0.023293659 0.026124801 0.023127245
-0.023298435 0.026555713 0.023262834
-0.023314275 0.03022255 0.023407619
-0.02320292 0.030373411 0.023403142
-0.023110788 0.031123165 0.023159262
-0.023073286 0.031372841 0.023240611
-0.022486109 -0.032356638 0.022402458
-0.022314759 -0.032030005 0.022563621
-0.022582162 0.031166879 0.023226658
-0.022676762 0.031366922 0.023121368
-0.021858329 -0.032221958 0.022491446
-0.021861283 -0.031925447 0.02256738
-0.022029296 0.031264577 0.023180002
-0.021405134 -0.03226902 0.022476852
-0.021358293 -0.031837344 0.022510922
-0.021586396 0.031301811 0.023174286
-0.020848935 -0.032338813 0.02248642
-0.020854129 -0.031843793 0.022514621
-0.021038655 0.031299379 0.023193769
-0.021085056 0.031389453 0.023343708
-0.020824537 0.031978667 0.023056375
-0.020391222 -0.032336958 0.022452509
-0.020331051 -0.031902667 0.022453964
-0.020562707 0.031266559 0.023219466
-0.020568615 0.031551424 0.023243872
-0.02060869 0.031910595 0.023111247
-0.01981144 -0.032227714 0.022461148
-0.019845938 -0.031914115 0.022498772
-0.020059094 0.031292517 0.023187749
-0.020120716 0.03164614 0.023189995
-0.019297633 -0.032202329 0.022428581
-0.019391011 -0.0319582 0.022540877
-0.019555228 0.031329762 0.023154289
-0.019632433 0.031638656 0.023174599
-0.018872947 -0.032262612 0.022514483
-0.018873772 -0.031943321 0.022491354
-0.019154554 0.031314295 0.023134939
-0.019071462 0.031505506 0.023230437
-0.018420406 -0.032248724 0.02248936
-0.018295979 -0.032009866 0.022456866
-0.018440308 0.031370066 0.023283793
-0.018526388 0.031394862 0.023184752
-0.017860241 -0.032320555 0.022467291
-0.017891498 -0.031945463 0.022480508
-0.017990299 0.031349026 0.02317895
-0.018040886 0.031397913 0.022991925
-0.017372428 -0.032361247 0.022488436
-0.017334918 -0.031905238 0.022487314
-0.017541962 0.031352859 0.023178967
-0.017545063 0.031465158 0.023028845
-0.016909501 -0.032313231 0.022517577
-0.01679638 -0.031945143 0.02241322
-0.016743258 -0.031547006 0.022607265
-0.017008284 0.031214917 0.023173399
-0.01703527 0.031465728 0.023254551
-0.016386803 -0.032515701 0.022482429
-0.016357796 -0.032001689 0.022480575
-0.016471468 -0.031549376 0.022598635
-0.016546901 0.031176984 0.023192137
-0.016482543 0.031516232 0.023150042
-0.016005421 -0.03212164 0.022296172
-0.015817773 -0.032026887 0.022431483
-0.016052656 0.031198449 0.023229022
-0.015946252 0.031556778 0.023147589
-0.01547911 -0.03264688 0.022369632
-0.015608516 -0.032501537 0.022364317
-0.015357001 -0.031996656 0.022431666
-0.015568478 0.031227157 0.023161041
-0.015568208 0.03150925 0.023152262
-0.014903847 -0.032193892 0.022545176
-0.014820893 -0.031966839 0.022476263
-0.015051605 0.031211808 0.023146482
-0.015142117 0.031434976 0.023180397
-0.014385898 -0.031964567 0.02249448
-0.014596031 0.031154459 0.023169104
-0.01459083 0.031444639 0.023158183
-0.013843957 -0.032043416 0.022406479
-0.014032038 0.031173572 0.023173658
-0.014069366 0.031455003 0.023125174
-0.013257127 -0.032113478 0.022528775
-0.013344015 -0.031956166 0.02240965
-0.013531284 0.031222316 0.023138287
-0.01365809 0.031479619 0.023133257
-0.012942716 -0.032118868 0.022438452
-0.012819688 -0.031886261 0.022467608
-0.013070136 0.031274144 0.02312424
-0.012378855 -0.03223874 0.022443037
-0.012322399 -0.031968683 0.02249549
-0.012526869 0.031327352 0.023164427
-0.011854741 -0.032297257 0.022435118
-0.011874666 -0.032015938 0.02241132
-0.012053279 0.03131143 0.023116611
-0.011985052 0.031522509 0.023368308
-0.011390125 -0.032328431 0.022477375
-0.011360422 -0.032009464 0.022413649
-0.011582386 0.03130012 0.023235189
-0.011638579 0.031499103 0.023083039
-0.010761926 -0.032140933 0.022463264
-0.010887376 -0.032002166 0.022409882
-0.01105538 0.031367347 0.023133501
-0.011070054 0.031477176 0.023141894
-0.010363331 -0.032235779 0.022471629
-0.010367257 -0.031963479 0.02239245
-0.010525648 0.03134289 0.023150651
-0.01060521 0.031475626 0.02300464
-0.0098659666 -0.032206621 0.022437522
-0.0098308083 -0.031944714 0.022394357
-0.010026371 0.031323645 0.023126539
-0.0093414634 -0.032279588 0.022444176
-0.00936238 -0.031978961 0.022439709
-0.0095379557 0.031228401 0.023118917
-0.008865241 -0.032310892 0.02236207
-0.0088622002 -0.03194518 0.022405457
-0.009020878 0.031285889 0.02307811
-0.0084567498 -0.032388769 0.022320805
-0.0083628651 -0.031977318 0.022408994
-0.0085464083 0.031328674 0.023088094
-0.0078317607 -0.031918302 0.022465382
-0.0081307553 0.031336635 0.02308804
-0.0080508338 0.03140977 0.023227785
-0.0072889305 -0.03214737 0.022442834
-0.0073628365 -0.031947054 0.022427429
-0.0076193064 0.031320337 0.023085272
-0.0068162931 -0.032195482 0.022435933
-0.0068802619 -0.031904969 0.022450324
-0.0070281723 0.031256832 0.023083076
-0.0064212554 -0.032225311 0.022423927
-0.0063584596 -0.031875409 0.022381559
-0.006487451 0.03121971 0.023114221
-0.0064723035 0.031568889 0.022926403
-0.0058355872 -0.032217268 0.022438608
-0.0058440976 -0.031888019 0.022386836
-0.006055125 0.03125627 0.023100171
-0.0053171096 -0.032190461 0.022415251
-0.005398035 -0.031827968 0.022448968
-0.005572095 0.031261891 0.023177361
-0.0055066179 0.031433832 0.023089634
-0.0049380814 -0.032220937 0.022405967
-0.0048498572 -0.031809635 0.022434993
-0.0050921706 0.031357743 0.023174809
-0.00524684 0.031436242 0.02294445
-0.0044122557 -0.032282621 0.022434259
-0.0043345848 -0.031802211 0.02239446
-0.004609135 0.031369798 0.023082752
-0.0043462017 0.03144291 0.023045823
-0.0038910387 -0.032267954 0.022403978
-0.0038797664 -0.031816155 0.022394391
-0.0040378189 0.031302832 0.023096399
-0.0040748962 0.031488635 0.023109986
-0.0033980082 -0.032194905 0.022420809
-0.0034064325 -0.031864926 0.022411127
-0.0035357275 0.031232392 0.023080701
-0.0036352356 0.031509995 0.023054529
-0.0028816091 -0.032149106 0.022370914
-0.0028747492 -0.0318771 0.022412645
-0.0030341181 0.031173304 0.023063177
-0.0030831425 0.031485055 0.023056833
-0.0023119389 -0.032271042 0.02237026
-0.0023753387 -0.031946238 0.022364462
-0.0025345017 0.03114268 0.023040956
-0.002700049 0.031480178 0.023186551
-0.0018821157 -0.03231388 0.022399148
-0.0019064823 -0.031882077 0.022388222
-0.0020817644 0.031166874 0.02308028
-0.0020453935 0.031682093 0.023137925
-0.0013342289 -0.032319024 0.022570482
-0.0014093455 -0.03183648 0.022414736
-0.0016102083 0.031181308 0.023141397
-0.0015824242 0.031549629 0.023065746
-0.00083965575 -0.032204166 0.022338873
-0.00089873862 -0.031863563 0.022388313
-0.00101534 0.031152638 0.023108011
-0.0010317937 0.031451948 0.022978738
-0.00041133264 -0.032226816 0.022382367
-0.00035720348 -0.031892441 0.022352353
-0.00056913821 0.031167183 0.023120781
0.00015707407 -0.032233 0.022326186
0.00012649715 -0.031903192 0.022404242
-3.0951574e-05 0.03108581 0.023057573
0.00063636905 -0.032189295 0.022363357
0.00060581561 -0.031889908 0.022346538
0.0004390371 0.03110731 0.023020206
0.0011586642 -0.032160036 0.022389073
0.0011570292 -0.031846799 0.022382818
0.00092656747 0.031120131 0.023014534
0.0016779345 -0.032208197 0.022363173
0.0016193921 -0.031872686 0.022358296
0.0013893554 0.031169329 0.023052968
0.0022633509 -0.032559592 0.022467183
0.0021606986 -0.032222666 0.022336394
0.0020875521 -0.031814292 0.022345921
0.0019644955 0.031219834 0.023092441
0.0025640987 -0.032617621 0.022366339
0.0026771908 -0.032221068 0.022350641
0.0025708959 -0.031846896 0.022363506
0.0024412123 0.031233054 0.023043083
0.0031274334 -0.032213617 0.022296673
0.0031452593 -0.03186515 0.0224129
0.0029066592 0.031284165 0.023072531
0.0036427029 -0.032304887 0.022342319
0.0036292919 -0.03190577 0.022357043
0.0034214326 0.031272564 0.023077337
0.0034860126 0.031834785 0.023022104
0.0041741543 -0.032303993 0.022317428
0.0041485974 -0.03187469 0.022340041
0.0039525968 0.031313837 0.023056807
0.0039751902 0.031625766 0.023003628
0.004642271 -0.032304306 0.022392921
0.0046255491 -0.031823654 0.022333553
0.0044480078 0.031309534 0.023053566
0.0044314386 0.031529326 0.023047052
0.0051344261 -0.032263767 0.022435719
0.0050995769 -0.03181047 0.022336271
0.0048907688 0.031308472 0.023040654
0.0056572333 -0.032216951 0.022376643
0.0055951085 -0.031843998 0.022324611
0.0054229838 0.03122532 0.023053877
0.0054673408 0.031477675 0.022936625
0.006152912 -0.032190166 0.022308864
0.0060981261 -0.031779099 0.022373384
0.0059152953 0.03125697 0.02304711
0.0058643054 0.031462356 0.022917455
0.006642736 -0.032156449 0.022331884
0.0065916632 -0.031743795 0.022317288
0.0064003724 0.031265017 0.023003677
0.0070950869 -0.032145865 0.022314277
0.0071263285 -0.031813096 0.022323277
0.0069219135 0.031233855 0.023019154
0.0076293582 -0.032145966 0.022362599
0.0076095946 -0.03183753 0.022307571
0.0074914256 0.031236099 0.023021506
0.0081386017 -0.032091998 0.022380002
0.0081457039 -0.031828098 0.022267736
0.0079529881 0.031212799 0.022992905
0.0086471308 -0.032102637 0.02233826
0.0086244401 -0.031826768 0.022309793
0.0084489351 0.031205993 0.022975806
0.009180191 -0.032159485 0.022317287
0.0091676032 -0.031806916 0.022335202
0.008955624 0.031189216 0.022995144
0.0096470593 -0.032251824 0.022287609
0.0096074603 -0.031791095 0.022298397
0.0094175525 0.031200297 0.022978405
0.010146046 -0.0322049 0.022322549
0.010071794 -0.031750951 0.022289023
0.0099622663 0.031230295 0.023011871
0.010757315 -0.032596815 0.022287382
0.010632189 -0.032188237 0.022275332
0.010593471 -0.03178484 0.022334166
0.010450335 0.031261433 0.022986922
0.011158706 -0.032196179 0.022300934
0.011159084 -0.031763092 0.022288509
0.010930221 0.031323619 0.023001341
0.011649857 -0.032133173 0.022265008
0.011572363 -0.031720731 0.022292078
0.011404933 0.031296175 0.022990104
0.011517678 0.031498797 0.02301723
0.012083127 -0.032188416 0.022313721
0.012164046 -0.031819694 0.022322398
0.011905578 0.031260509 0.023023386
0.011980288 0.031519286 0.023060642
0.012640053 -0.032204479 0.022290939
0.012686886 -0.031817198 0.022324456
0.01241198 0.031274714 0.022979857
0.012456404 0.031519696 0.022973644
0.013147023 -0.032211583 0.022295235
0.013104722 -0.031828593 0.022329047
0.012907793 0.031255573 0.022955915
0.012939441 0.031570148 0.022944478
0.013625837 -0.032222722 0.022276497
0.013635083 -0.031820092 0.022269465
0.013379923 0.031235041 0.022957869
0.013407479 0.031586271 0.022955095
0.014124082 -0.032218881 0.022268342
0.014083233 -0.031782683 0.022293093
0.013941396 0.031310484 0.022967385
0.013747507 0.031614885 0.022959609
0.014609102 -0.032197971 0.022261061
0.014648711 -0.03185007 0.022258449
0.014414454 0.031308953 0.02298056
0.015129111 -0.032275639 0.022275675
0.01513307 -0.031833589 0.022286503
0.014948499 0.031339835 0.022931399
0.015585409 -0.032212179 0.022242699
0.015599909 -0.031851783 0.022278253
0.015448995 0.031348828 0.022982335
0.015409516 0.031538036 0.023056844
0.016147474 -0.032139957 0.022269733
0.016101398 -0.031907886 0.022267234
0.015941205 0.031363621 0.022963811
0.015947733 0.031607531 0.022964567
0.016625259 -0.032179836 0.02227967
0.016632149 -0.031923186 0.022273857
0.016417421 0.031408224 0.022930698
0.01637926 0.03162745 0.022909872
0.017130431 -0.032218434 0.022247154
0.017158395 -0.031914018 0.022272684
0.016886203 0.031417232 0.022954348
0.016978638 0.031583138 0.022987492
0.017629411 -0.032174267 0.022236284
0.017643735 -0.031903084 0.022264551
0.017401217 0.031453993 0.022953017
0.017476659 0.031593606 0.023106959
0.018133771 -0.032208648 0.022248741
0.018104849 -0.031921849 0.022292694
0.017902263 0.031442035 0.022959517
0.017996173 0.031551704 0.023062004
0.01867836 -0.032105386 0.022258043
0.018630136 -0.031892847 0.022264721
0.018439852 0.031431336 0.022910733
0.01913302 -0.032122619 0.022282885
0.019192128 -0.031872559 0.022235276
0.018951871 0.031395618 0.022984494
0.019630101 -0.032121036 0.022204515
0.019558242 -0.031852748 0.022252111
0.019467773 0.031388238 0.022924006
0.020209752 -0.0321646 0.022282379
0.019994861 -0.031926379 0.022251107
0.019935641 0.031362075 0.022915151
0.020742144 -0.032534692 0.022476071
0.02065541 -0.032189615 0.022226339
0.020520987 -0.031966653 0.022177311
0.020434059 0.031360153 0.022884686
0.02107732 -0.032595754 0.022248128
0.021170266 -0.032130204 0.022253485
0.02113062 -0.031748161 0.022251371
0.020922035 0.031362195 0.022920987
0.02100138 0.03161921 0.022942394
0.021615535 -0.032121852 0.022273878
0.021523174 -0.031830728 0.022360846
0.021447487 -0.031395402 0.022287456
0.021451838 0.031369887 0.022948893
0.021476449 0.031542495 0.022892375
0.022123937 -0.032135572 0.022215044
0.022154471 -0.031873479 0.022248255
0.021941962 0.031304196 0.022932053
0.021856446 0.031562623 0.022897614
0.022624437 -0.032149345 0.022217875
0.022703277 -0.031836521 0.022223983
0.022625342 -0.031262048 0.022219311
0.022409383 0.031268854 0.022958456
0.022517176 0.031667069 0.022967573
0.023108972 -0.032512628 0.022299927
0.023129724 -0.032137007 0.022197632
0.023104494 -0.031666521 0.022210663
0.023201868 -0.031219507 0.022236943
0.023359073 -0.027582303 0.022242304
0.023332877 -0.027172191 0.022219015
0.023327664 -0.026582403 0.02227021
0.023338638 -0.026193418 0.022276457
0.023278035 -0.025724083 0.022298671
0.023279674 -0.025286406 0.02236932
0.023224983 -0.02474295 0.022330491
0.023224374 -0.024280932 0.022377802
0.023289626 -0.023816478 0.02233769
0.023300795 -0.014267387 0.022432486
0.023280431 -0.013748192 0.02244786
0.023276458 -0.013283516 0.022414913
0.023268186 -0.012760772 0.022471542
0.023294982 -0.012296034 0.022360586
0.023282314 -0.011790586 0.022371955
0.023276389 -0.011307405 0.022392612
0.023280207 -0.010704939 0.022514366
0.023202881 0.00073446438 0.022687638
0.023248987 0.0046669338 0.022844438
0.023154946 0.01730597 0.02279287
0.023077713 0.017709687 0.022548469
0.023149218 0.030376524 0.022964876
0.023055064 0.030730175 0.02292528
0.022909027 0.031241013 0.022912297
0.022834726 0.031525034 0.022862706
0.023445478 -0.032088857 0.022141665
0.023503318 -0.031694751 0.022283137
0.023435092 -0.030984875 0.022381013
0.023552675 -0.030770615 0.022258719
0.023695465 -0.030239163 0.022216529
0.023730509 -0.02976469 0.022236221
0.023684083 -0.029250821 0.022291221
0.023679592 -0.028737361 0.022202287
0.023424068 -0.028178575 0.022216447
0.023583947 -0.027751099 0.022197459
0.023637243 -0.0271513 0.022267949
0.023630397 -0.026719561 0.022270009
0.02365284 -0.026238253 0.022293236
0.023622107 -0.025719371 0.02229429
0.023657259 -0.025205921 0.022289507
0.023661096 -0.024736553 0.022283034
0.023641439 -0.024236243 0.022355173
0.023494149 -0.023731079 0.022384183
0.02349682 -0.023258312 0.022364244
0.023615811 -0.022726392 0.022345696
0.023644734 -0.022230018 0.022333531
0.023646675 -0.021748621 0.022315191
0.02366351 -0.021205749 0.022296149
0.023625506 -0.020742286 0.022331309
0.023585282 -0.020214716 0.022369176
0.023551639 -0.019753579 0.022395939
0.023582874 -0.019174878 0.022399092
0.023561627 -0.018739341 0.022417974
0.023640675 -0.01825713 0.022333028
0.023682589 -0.017731186 0.022358036
0.023685003 -0.017218605 0.022353902
0.023672946 -0.016752819 0.022404287
0.02363863 -0.016288321 0.022398449
0.023627501 -0.015773447 0.02239123
0.023599213 -0.015203679 0.02236983
0.023587277 -0.014724145 0.022380749
0.023603695 -0.014189756 0.022432646
0.023713712 -0.013747835 0.022398297
0.023709502 -0.013199682 0.022490276
0.023603419 -0.012702344 0.022441322
0.023618026 -0.012191907 0.022463925
0.023591544 -0.011773283 0.022399573
0.023553563 -0.011198311 0.022458056
0.023585778 -0.010715878 0.022440456
0.023539655 -0.010234975 0.022485629
0.023588249 -0.0097634234 0.022449629
0.023581542 -0.0092766117 0.022463463
0.023624234 -0.0087601542 0.022489009
0.023622941 -0.0082612988 0.022505011
0.023654195 -0.0077247764 0.022485191
0.023617135 -0.0072202771 0.022471786
0.023554938 -0.0067446548 0.02252068
0.023527207 -0.0062118834 0.022496961
0.023536772 -0.0056990148 0.02249264
0.023583829 -0.0052448548 0.022520138
0.023573274 -0.0047556572 0.022527341
0.02361262 -0.0042211311 0.022537611
0.023572456 -0.0037512034 0.022570116
0.023573428 -0.0032592653 0.022567375
0.023598183 -0.0027225786 0.022527745
0.023609912 -0.00219945 0.022547886
0.023590297 -0.0016920546 0.022560377
0.0236158 -0.0012331642 0.022583485
0.023582129 -0.00070674205 0.022591397
0.023591135 -0.00023644918 0.022597156
0.023560259 0.00023940089 0.022581592
0.023567831 0.00073368696 0.022598384
0.023629816 0.0012384934 0.022611775
0.023609672 0.0018088743 0.022642296
0.023587156 0.0023365375 0.022630733
0.023557682 0.0028110512 0.022619242
0.023548674 0.0032762545 0.022557812
0.023590276 0.0037611937 0.022623748
0.023544621 0.0042342762 0.022674823
0.023569882 0.0047694002 0.02263451
0.023614636 0.005305252 0.022625333
0.023632292 0.0057827346 0.02264866
0.023592761 0.006284113 0.022661012
0.023596363 0.0067945179 0.022679808
0.02352592 0.0072828452 0.022641921
0.023561306 0.0077796457 0.022650493
0.023507776 0.0082895914 0.022698727
0.023544094 0.0087412959 0.022687268
0.023574619 0.0092276158 0.022704929
0.023579597 0.0097360266 0.022679688
0.02354531 0.010286937 0.022663882
0.023484021 0.010757897 0.022698715
0.023571381 0.011242051 0.022701101
0.023572894 0.011767531 0.022676993
0.02356682 0.012280627 0.022673085
0.023573626 0.012820594 0.022699373
0.023579029 0.013266178 0.02271091
0.02357387 0.013748873 0.022703988
0.023471817 0.0142619 0.022749776
0.02353191 0.014715703 0.022674147
0.023566542 0.01531525 0.022749461
0.023599187 0.015730634 0.02279651
0.023527462 0.016204562 0.022765204
0.023422111 0.016751356 0.022774182
0.02369838 0.017356286 0.022828212
0.023705821 0.017895417 0.022961276
0.023475302 0.018745001 0.022766171
0.023697607 0.019196872 0.022728616
0.023702687 0.021545365 0.023031767
0.023685716 0.022324629 0.022835003
0.023673393 0.022799656 0.022864612
0.023630537 0.023335487 0.022897458
0.0236538 0.023766898 0.022924719
0.023625609 0.024260495 0.02281091
0.023645578 0.024788568 0.022864096
0.023541743 0.025223583 0.022863895
0.023595424 0.025716774 0.022826301
0.023587707 0.026311781 0.022854475
0.023623947 0.026759192 0.022927351
0.023607571 0.02725913 0.022851679
0.023516592 0.027773816 0.022827702
0.023521865 0.028241936 0.022880994
0.023492537 0.028726475 0.022924311
0.023446146 0.029245486 0.022886015
0.023488972 0.029767398 0.022899317
0.023486501 0.03022013 0.022903532
0.023438849 0.03075145 0.022920836
0.023506664 0.031213822 0.022905134
0.023560958 0.031759836 0.022884833
0.024014665 -0.030739967 0.022267923
0.023893664 -0.030227277 0.022280492
0.023982763 -0.029710906 0.022314936
0.023985866 -0.029214596 0.022236662
0.023934105 -0.02876416 0.022279326
0.023926476 -0.028211379 0.022259951
0.023956927 -0.027669614 0.02224949
0.023918906 -0.027331462 0.022220647
0.023920158 -0.025580395 0.022250896
0.023909165 -0.025277331 0.022300756
0.023909695 -0.024746459 0.022309924
0.023952732 -0.024252288 0.022269484
0.023948269 -0.023740852 0.02235179
0.023970233 -0.023233773 0.022355866
0.02399688 -0.02273028 0.02230845
0.023966735 -0.022284923 0.022469494
0.02389572 -0.021674341 0.02234605
0.023990896 -0.021264328 0.022372819
0.024000371 -0.020706089 0.022332923
0.024041213 -0.020261511 0.022366764
0.0240095 -0.019768 0.022380006
0.023947593 -0.019195842 0.022361655
0.023984328 -0.018732391 0.022391532
0.023976849 -0.018242162 0.022401493
0.023926269 -0.017775644 0.022434348
0.023873128 -0.017246451 0.022371057
0.023852276 -0.016645348 0.022397008
0.023879332 -0.016248561 0.022459868
0.023867892 -0.015714962 0.022419915
0.023876039 -0.015202333 0.022409329
0.023863813 -0.014713006 0.022474229
0.023926534 -0.014242034 0.022361323
0.023969401 -0.013714431 0.022487456
0.023982953 -0.013236172 0.022425318
0.023933865 -0.012717516 0.022427492
0.023966584 -0.012227132 0.022463039
0.023954231 -0.011770071 0.022507114
0.023992555 -0.011205138 0.022458037
0.023931278 -0.010799021 0.022477455
0.023929423 -0.010277838 0.022441238
0.02392428 -0.0097769937 0.022466442
0.02388921 -0.0092456536 0.022524847
0.023845725 -0.008792948 0.022515878
0.023824394 -0.0077547482 0.022451367
0.023875112 -0.0072348663 0.022491008
0.023898121 -0.0067385989 0.022492088
0.023900708 -0.006300427 0.02249114
0.023934025 -0.0056809951 0.022485245
0.023879528 -0.0052299537 0.022571716
0.023851383 -0.0047550332 0.022543967
0.02389917 -0.0042559141 0.022528155
0.023953477 -0.0037062205 0.022524763
0.023950342 -0.0032556979 0.022553612
0.023986686 -0.0027163411 0.022547809
0.023997223 -0.002229925 0.022493623
0.02385292 -0.0017613159 0.022575909
0.023850005 -0.0012016355 0.02258312
0.02382431 -0.00071126624 0.022596549
0.023788569 -0.00034160883 0.022644773
0.023793608 0.0013957769 0.022636317
0.02381004 0.0017577548 0.02263057
0.023844268 0.0022692271 0.022592491
0.023877814 0.0027205541 0.022533746
0.023866769 0.0032317215 0.022603676
0.023890048 0.0037050992 0.022602074
0.023852779 0.0041931905 0.022664899
0.02382605 0.004711248 0.022646101
0.023826584 0.0052810544 0.022595253
0.023827767 0.0058150752 0.022632692
0.023827115 0.0063429689 0.022733066
0.023820661 0.0068019708 0.022682747
0.023813907 0.0073339809 0.022640944
0.023808006 0.0077845356 0.022650437
0.023814131 0.0082592042 0.022693161
0.023802467 0.0086831385 0.02275846
0.023775561 0.0091838054 0.022653209
0.023775728 0.0097420132 0.022716273
0.023773851 0.010185882 0.022657717
0.023776777 0.010765163 0.022712586
0.023804331 0.011344247 0.022878911
0.023854937 0.01168208 0.022798793
0.023752784 0.012738666 0.022581918
0.023780689 0.013221025 0.022752099
0.023802934 0.013784116 0.022766924
0.023788467 0.014287394 0.022704657
0.023792233 0.014782458 0.022679223
0.023832783 0.015325776 0.022728611
0.023821043 0.015723055 0.022776231
0.023867633 0.016285568 0.022705901
0.023905339 0.016786093 0.02271172
0.023930101 0.017264042 0.022736084
0.023881337 0.017764991 0.022757806
0.023825178 0.01824664 0.022825385
0.023806836 0.018767396 0.022741064
0.02380397 0.01925651 0.022813398
0.023818191 0.019788025 0.022742806
0.023797503 0.020325476 0.022812
0.023833755 0.020796835 0.022781072
0.023805579 0.021242121 0.022810413
0.0237842 0.021767911 0.022803683
0.023813402 0.022337431 0.022829002
0.02382098 0.022762891 0.022828629
0.023813976 0.023227172 0.022793788
0.023821704 0.023671325 0.022809235
0.023783823 0.024244204 0.022847328
0.023818482 0.024735097 0.022846594
0.023782087 0.025280807 0.02288661
0.023793187 0.025757249 0.022801166
0.023755658 0.026347935 0.022852829
0.023754437 0.026829444 0.022902275
0.023768969 0.027334452 0.022846283
0.023791473 0.027780987 0.022849604
0.023802567 0.028284373 0.022906823
0.023879159 0.028825689 0.022920419
0.02390267 0.029305076 0.022903245
0.023965035 0.029746922 0.022893475
0.023994302 0.030115306 0.02293019
0.024252569 0.029895194 0.022846397
-0.024274021 -0.031670447 0.022049783
-0.024299752 -0.031552702 0.022265758
-0.023858003 -0.03319696 0.022056771
-0.023841098 -0.032889016 0.02205658
-0.023762131 -0.032377604 0.022066189
-0.023775877 -0.031812765 0.02203295
-0.02362664 -0.031255204 0.021774402
-0.023622107 -0.030941632 0.021975346
-0.023948746 -0.029681051 0.022026373
-0.023952976 -0.029295374 0.022103706
-0.023877913 -0.02882814 0.022074731
-0.023848465 -0.028338522 0.022036446
-0.023903126 -0.027804386 0.022092089
