# .PCD v0.7 - Point Cloud Data file format
VERSION 0.7
FIELDS x y z
SIZE 4 4 4
TYPE F F F
COUNT 1 1 1
WIDTH 443
HEIGHT 1
VIEWPOINT 0 0 0 1 0 0 0
POINTS 443
DATA ascii
-0.0021490692 0.03173738 0.00024382911
-0.0017532483 0.031736411 0.0002428096
0.011870468 0.031702973 0.00020771939
0.013906343 0.031697974 0.00020247565
0.01418714 0.031697284 0.00020175241
0.014859189 0.031695638 0.00020002143
0.01516273 0.031694893 0.00019923961
0.019963369 0.03168311 0.00018687475
-0.019213282 0.031779263 0.00028778092
-0.018773176 0.031778183 0.00028664735
-0.014690549 0.031768162 0.00027613185
-0.014236589 0.031767048 0.0002749626
-0.013751098 0.031765856 0.00027371212
-0.013238738 0.0317646 0.00027239244
-0.01271632 0.031763319 0.00027104688
-0.01217706 0.031761993 0.00026965793
-0.011631231 0.031760655 0.00026825204
-0.01120529 0.031759609 0.00026715494
-0.0096462145 0.031755783 0.00026313929
-0.0091759935 0.031754628 0.00026192816
-0.0087453881 0.03175357 0.00026081907
-0.0083107138 0.031752504 0.00025969947
-0.007691808 0.031750984 0.0002581054
-0.0071991188 0.031749777 0.00025683639
-0.0066913608 0.03174853 0.00025552858
-0.0061874064 0.031747293 0.00025423054
-0.0057599628 0.031746242 0.00025312958
-0.0047340943 0.031743728 0.0002504873
-0.0042124344 0.031742446 0.00024914366
-0.003705523 0.031741202 0.00024783803
-0.00016342523 0.031732507 0.00023871475
0.00091645075 0.031729858 0.00023593334
0.0012905279 0.031728938 0.00023496985
0.0017860518 0.031727724 0.00023369354
0.0023183343 0.031726416 0.00023232255
0.0027756975 0.031725295 0.00023114454
0.0031471665 0.031724382 0.00023018775
0.0048477054 0.03172021 0.00022580773
0.0052358201 0.031719256 0.00022480807
0.0063434998 0.031716537 0.00022195505
0.006938892 0.031715076 0.00022042151
0.0072731096 0.031714257 0.00021956068
0.0077738571 0.031713028 0.00021827093
0.0082516875 0.031711854 0.00021704019
0.0089357467 0.031710174 0.00021527827
0.0094078556 0.031709015 0.00021406228
0.0097938739 0.031708069 0.00021306802
0.010332346 0.031706747 0.00021168109
0.010727663 0.031705778 0.0002106629
0.011236794 0.031704526 0.00020935154
0.011847749 0.031703029 0.00020777792
0.012293671 0.031701934 0.00020662937
0.012764741 0.031700779 0.00020541604
0.013228336 0.031699639 0.00020422197
0.014805164 0.031695768 0.00020016059
0.015299365 0.031694558 0.00019888769
0.015762191 0.031693421 0.0001976956
0.01625148 0.031692218 0.00019643536
0.01728382 0.031689685 0.00019377639
0.017761094 0.031688515 0.00019254709
0.018262515 0.031687282 0.00019125559
0.018809367 0.031685941 0.00018984708
0.01927378 0.031684801 0.0001886509
0.019815598 0.031683471 0.00018725535
0.020260945 0.03168238 0.00018610829
0.020759191 0.031681158 0.00018482498
0.022218265 0.031677574 0.00018106688
-0.024448993 0.031367015 0.024212774
-0.02375892 0.031365354 0.024209058
-0.02303258 0.03136361 0.024205148
-0.022540646 0.031362426 0.0242025
-0.022226788 0.031361669 0.02420081
-0.021528741 0.031359993 0.024197051
-0.021071151 0.031358894 0.024194587
-0.020595727 0.03135775 0.024192028
-0.020049853 0.031356435 0.024189088
-0.019599121 0.031355351 0.024186661
-0.019077873 0.0313541 0.024183854
-0.018560318 0.031352855 0.024181068
-0.018132133 0.031351827 0.024178764
-0.017557075 0.031350441 0.024175666
-0.017139284 0.031349439 0.024173418
-0.016575664 0.031348083 0.024170382
-0.016005643 0.031346712 0.024167314
-0.015580352 0.031345692 0.024165023
-0.015080389 0.031344488 0.024162332
-0.014591025 0.031343311 0.024159698
-0.014094625 0.031342119 0.024157025
-0.013593679 0.031340912 0.024154328
-0.013115143 0.031339761 0.02415175
-0.012557782 0.031338423 0.024148749
-0.012146614 0.031337433 0.024146536
-0.011605056 0.031336132 0.024143619
-0.011153541 0.031335045 0.024141189
-0.010574911 0.031333655 0.024138074
-0.010086406 0.031332482 0.024135444
-0.0095592551 0.031331211 0.024132606
-0.0090143904 0.031329904 0.024129672
-0.0085791014 0.031328857 0.024127327
-0.0081193876 0.031327751 0.024124853
-0.0076849796 0.031326707 0.024122514
-0.0071211858 0.031325351 0.024119478
-0.0065541882 0.031323988 0.024116425
-0.0060685757 0.031322818 0.024113812
-0.0057345582 0.031322017 0.024112012
-0.0050834683 0.031320453 0.024108507
-0.0046112305 0.031319316 0.024105964
-0.0040643648 0.031318001 0.024103019
-0.0035663308 0.031316802 0.024100339
-0.0030421084 0.031315543 0.024097515
-0.0025742543 0.031314418 0.024094997
-0.0020487893 0.031313155 0.024092168
-0.0015758178 0.031312019 0.024089621
-0.0010442613 0.031310737 0.024086758
-0.0005621952 0.031309579 0.024084164
-3.8023107e-05 0.031308319 0.024081342
0.00038557313 0.031307302 0.02407906
0.00097857229 0.031305876 0.024075868
0.0014238101 0.031304803 0.02407347
0.0019511045 0.031303536 0.024070632
0.0027379808 0.031301644 0.024066394
0.0034537478 0.031299923 0.02406254
0.0039273328 0.031298786 0.02405999
0.0042396453 0.031298034 0.024058308
0.0048667272 0.031296525 0.024054933
0.0054410319 0.031295147 0.024051841
0.0059023374 0.031294037 0.024049357
0.0063604922 0.031292934 0.02404689
0.0069442992 0.03129153 0.024043746
0.0079215262 0.031289183 0.024038486
0.0084547233 0.031287897 0.024035614
0.0093980692 0.031285632 0.024030535
0.0097025987 0.031284899 0.024028895
0.01048103 0.031283028 0.024024704
0.011506472 0.031280562 0.024019184
0.013423912 0.03127595 0.024008859
0.013949029 0.031274687 0.024006031
0.014900448 0.0312724 0.024000909
0.015417812 0.031271156 0.023998125
0.022634545 0.031253804 0.023959268
-0.023499059 -0.032188665 0.014464717
-0.023513423 -0.032198388 0.014869308
-0.023503656 -0.032191776 0.014594202
-0.023521461 -0.032203827 0.015095716
-0.023524314 -0.032205757 0.01517609
-0.023541288 -0.032217246 0.015654137
-0.023536639 -0.032214098 0.015523201
-0.023555774 -0.032227051 0.016062187
-0.023559222 -0.032229383 0.016159281
-0.023579516 -0.032243118 0.016730852
-0.023592547 -0.032251935 0.017097868
-0.023615038 -0.032267161 0.017731385
-0.02360734 -0.032261949 0.017514557
-0.023633409 -0.032279592 0.018248826
-0.023686873 -0.032315776 0.019754648
-0.023678448 -0.032310072 0.019517366
-0.023704009 -0.032327373 0.020237301
-0.023705471 -0.032328364 0.020278478
-0.023704423 -0.032327652 0.020248979
-0.023715582 -0.032335207 0.020563267
-0.023715731 -0.032335307 0.020567477
-0.023735192 -0.032348476 0.02111561
-0.023731338 -0.032345869 0.021007035
-0.023751384 -0.032359436 0.021571632
-0.023776263 -0.032376274 0.022272423
-0.023801714 -0.0323935 0.022989245
-0.023819914 -0.032405816 0.023501854
-0.023287214 0.03191698 0.0026717205
-0.023304045 0.031909861 0.0031453669
-0.023342798 0.031893466 0.0042359987
-0.023359451 0.031886421 0.0047046356
-0.023380117 0.031877682 0.0052862475
-0.023393689 0.031871941 0.0056681824
-0.023411486 0.031864412 0.0061690533
-0.023428725 0.031857118 0.0066541978
-0.02343145 0.031855967 0.006730909
-0.023447059 0.031849362 0.0071701664
-0.023465132 0.031841718 0.0076787923
-0.023482986 0.031834166 0.0081812236
-0.023501407 0.031826373 0.00869969
-0.023519792 0.031818595 0.0092170676
-0.023536926 0.031811349 0.009699285
-0.023554519 0.031803906 0.01019438
-0.023572428 0.031796329 0.010698396
-0.023590609 0.03178864 0.011210073
-0.023608444 0.031781096 0.011711994
-0.023626022 0.03177366 0.012206676
-0.023643959 0.031766072 0.012711474
-0.023646893 0.031764831 0.012794026
-0.023662863 0.031758074 0.013243493
-0.023680108 0.03175078 0.013728765
-0.023697726 0.031743329 0.014224586
-0.023715062 0.031735994 0.014712461
-0.023738666 0.03172601 0.015376734
-0.023732798 0.031728491 0.015211629
-0.02374999 0.031721219 0.015695438
-0.023805939 0.031697553 0.017270003
-0.023805691 0.031697657 0.017263031
-0.023819432 0.031691846 0.017649705
-0.023823084 0.0316903 0.017752498
-0.023842437 0.031682111 0.018297173
-0.023840921 0.031682756 0.018254459
-0.023857471 0.031675752 0.018720239
-0.023872038 0.031669591 0.019130193
-0.023893138 0.031660665 0.019724
-0.023910619 0.03165327 0.020215968
-0.02398064 0.03162365 0.02218654
-0.023998661 0.031616028 0.022693714
0.023974329 -0.031878915 0.013374287
0.023939444 -0.031885501 0.013844113
0.023953931 -0.031882767 0.01364899
0.023835992 -0.031905025 0.015237349
0.02380085 -0.03191166 0.015710648
0.023802461 -0.031911355 0.015688935
0.023761038 -0.031919174 0.016246822
0.023765594 -0.031918313 0.016185448
0.023721246 -0.031926684 0.016782708
0.023729887 -0.031925052 0.016666353
0.023697112 -0.03193124 0.017107751
0.023646848 -0.031940728 0.017784676
0.023612732 -0.031947166 0.018244142
0.023612155 -0.031947274 0.018251929
0.023572223 -0.031954814 0.018789694
0.023578135 -0.031953696 0.018710064
0.023534529 -0.031961925 0.019297348
0.023536673 -0.031961523 0.019268487
0.023502851 -0.031967904 0.019723983
0.023499161 -0.031968601 0.019773668
0.023461938 -0.031975627 0.020274989
0.023466904 -0.031974692 0.020208092
0.023426699 -0.03198228 0.02074958
0.023391441 -0.031988934 0.021224396
0.023358598 -0.031995133 0.021666722
0.02331917 -0.032002576 0.022197716
0.023314191 -0.032003514 0.022264769
0.023282602 -0.032009479 0.02269019
0.023281574 -0.032009672 0.02270405
0.023241766 -0.032017186 0.023240162
0.023245813 -0.032016423 0.023185652
-0.023498788 -0.03198608 0.014466502
-0.023507904 -0.031988114 0.014611725
-0.023523558 -0.031991601 0.014861122
-0.023536343 -0.031994455 0.015064815
-0.023534229 -0.031993981 0.015031139
-0.023566393 -0.032001153 0.015543543
-0.023571307 -0.032002248 0.015621838
-0.023597695 -0.03200813 0.016042227
-0.023603631 -0.032009453 0.016136799
-0.023641108 -0.032017808 0.01673384
-0.023663865 -0.032022879 0.017096397
-0.023673626 -0.032025054 0.017251894
-0.023690701 -0.032028861 0.017523944
-0.023729566 -0.032037526 0.018143117
-0.023766223 -0.0320457 0.018727113
-0.023847556 -0.032063827 0.020022839
-0.023816828 -0.03205698 0.019533303
-0.023877256 -0.03207045 0.020496001
-0.023856014 -0.032065716 0.020157587
-0.023881491 -0.032071393 0.020563476
-0.02391234 -0.03207827 0.021054946
-0.023909276 -0.032077588 0.021006139
-0.023943918 -0.032085311 0.021558031
-0.023942994 -0.032085102 0.021543302
-0.02398234 -0.032093875 0.022170138
-0.02398975 -0.032095525 0.022288192
-0.024032939 -0.032105155 0.022976264
-0.024045596 -0.032107975 0.023177885
-0.02406536 -0.032112382 0.023492765
-0.023499059 -0.032188665 0.014464717
-0.023513423 -0.032198388 0.014869308
-0.023503656 -0.032191776 0.014594202
-0.023521461 -0.032203827 0.015095716
-0.023524314 -0.032205757 0.01517609
-0.023541288 -0.032217246 0.015654137
-0.023536639 -0.032214098 0.015523201
-0.023555774 -0.032227051 0.016062187
-0.023559222 -0.032229383 0.016159281
-0.023579516 -0.032243118 0.016730852
-0.023592547 -0.032251935 0.017097868
-0.023615038 -0.032267161 0.017731385
-0.02360734 -0.032261949 0.017514557
-0.023633409 -0.032279592 0.018248826
-0.023686873 -0.032315776 0.019754648
-0.023678448 -0.032310072 0.019517366
-0.023704009 -0.032327373 0.020237301
-0.023705471 -0.032328364 0.020278478
-0.023704423 -0.032327652 0.020248979
-0.023715582 -0.032335207 0.020563267
-0.023715731 -0.032335307 0.020567477
-0.023735192 -0.032348476 0.02111561
-0.023731338 -0.032345869 0.021007035
-0.023751384 -0.032359436 0.021571632
-0.023776263 -0.032376274 0.022272423
-0.023801714 -0.0323935 0.022989245
-0.023819914 -0.032405816 0.023501854
-0.023821145 -0.032866631 0.023578569
-0.02382258 -0.032454286 0.023581289
-0.023824582 -0.031877976 0.02358509
-0.023827594 -0.031011824 0.023590801
-0.023829991 -0.030321762 0.023595352
-0.023831494 -0.029889524 0.023598202
-0.023833316 -0.029365126 0.023601661
-0.023834927 -0.028901882 0.023604715
-0.023836534 -0.028439105 0.023607768
-0.023838324 -0.027924102 0.023611164
-0.02384018 -0.027390614 0.023614682
-0.023842009 -0.026864521 0.023618151
-0.023843583 -0.026411239 0.02362114
-0.023845358 -0.02590096 0.023624506
-0.023847293 -0.025343776 0.023628179
-0.023849089 -0.024827324 0.023631586
-0.023850644 -0.024379961 0.023634536
-0.023852294 -0.023904879 0.023637669
-0.02385474 -0.023201551 0.023642307
-0.023858016 -0.022258643 0.023648525
-0.02386147 -0.021265097 0.023655077
-0.023862906 -0.02085216 0.023657801
-0.023864372 -0.020430606 0.02366058
-0.023866376 -0.019853577 0.023664385
-0.023868075 -0.019364893 0.023667607
-0.02386985 -0.018854424 0.023670973
-0.023871642 -0.018338867 0.023674374
-0.02387502 -0.017366499 0.023680786
-0.023877146 -0.016755138 0.023684818
-0.023878332 -0.016413614 0.02368707
-0.02388013 -0.015896842 0.023690477
-0.023882076 -0.015336827 0.023694171
-0.023883574 -0.014905701 0.023697013
-0.02388515 -0.014452555 0.023700003
-0.023886949 -0.013934813 0.023703417
-0.02389238 -0.012372009 0.023713723
-0.023893883 -0.011939912 0.023716573
-0.023896193 -0.011275328 0.023720955
-0.023897741 -0.010829801 0.023723893
-0.023899214 -0.010405726 0.023726689
-0.023901027 -0.0098846005 0.023730125
-0.023902699 -0.0094032204 0.023733301
-0.02390434 -0.0089309411 0.023736415
-0.023909714 -0.0073850797 0.02374661
-0.023911418 -0.0068948008 0.023749841
-0.023913259 -0.0063653504 0.023753334
-0.023914721 -0.0059444746 0.023756109
-0.02391657 -0.0054127574 0.023759615
-0.02391875 -0.0047856718 0.023763752
-0.023920171 -0.0043763714 0.023766451
-0.023921769 -0.003916793 0.023769481
-0.02392322 -0.0034991642 0.023772234
-0.023925327 -0.002893527 0.023776229
-0.023926901 -0.0024403441 0.023779217
-0.02393103 -0.0012521627 0.023787053
-0.023932191 -0.00091852015 0.023789253
-0.023933789 -0.00045877835 0.023792285
-0.023935668 8.1847655e-05 0.023795851
-0.023937816 0.00070008752 0.023799928
-0.02393928 0.0011211161 0.023802703
-0.023940988 0.0016127508 0.023805946
-0.023943156 0.0022360873 0.023810057
-0.023944609 0.0026545376 0.023812816
-0.023946125 0.0030905567 0.023815691
-0.023947753 0.0035588276 0.02381878
-0.02394978 0.0041420641 0.023822626
-0.023951348 0.0045934003 0.023825601
-0.023953442 0.0051955683 0.023829572
-0.023954758 0.005574543 0.023832072
-0.023956366 0.0060369885 0.023835121
-0.023958318 0.0065985387 0.023838824
-0.023960734 0.0072934255 0.023843408
-0.023961799 0.007600137 0.02384543
-0.023963492 0.0080870129 0.02384864
-0.023965266 0.0085976068 0.023852007
-0.023966961 0.0090852054 0.023855222
-0.023968732 0.0095946211 0.023858583
-0.02397047 0.010094708 0.023861879
-0.023972264 0.010610899 0.023865284
-0.023974303 0.011197352 0.023869151
-0.023975829 0.011636636 0.023872048
-0.023977632 0.012154995 0.023875467
-0.023980938 0.013106202 0.023881739
-0.023982588 0.013581366 0.023884874
-0.023984337 0.014084392 0.023888191
-0.023986062 0.01458055 0.023891462
-0.023988031 0.015147296 0.0238952
-0.023989497 0.015568526 0.023897978
-0.02399111 0.016032716 0.023901038
-0.023992976 0.016569687 0.023904581
-0.023995096 0.017179459 0.0239086
-0.024008768 0.021113049 0.023934541
-0.024010461 0.021600526 0.023937756
-0.024013966 0.022608973 0.023944406
-0.024015846 0.02314955 0.023947971
-0.024017416 0.023601033 0.023950947
-0.024019726 0.024265964 0.023955334
-0.024022702 0.025122344 0.023960982
-0.024024386 0.025606658 0.023964174
-0.024026055 0.026086893 0.023967341
-0.024027826 0.02659658 0.023970703
-0.024029497 0.027076941 0.023973871
-0.024031196 0.027565572 0.023977093
-0.024034822 0.028609414 0.023983976
-0.024036571 0.029112671 0.023987295
-0.024038201 0.029581293 0.023990385
-0.024040205 0.030158073 0.023994189
-0.024042731 0.030884739 0.023998981
-0.024043405 0.031078599 0.024000259
-0.023920046 -0.0044126455 0.02376621
-0.023949103 0.0039475071 0.023821343
-0.023972191 0.010589825 0.023865145
-0.023973782 0.011047544 0.023868164
-0.023977319 0.012065327 0.023874875
-0.02397942 0.012669828 0.023878861
-0.023980793 0.013064558 0.023881465
-0.023984835 0.014227506 0.023889134
-0.023987833 0.015090021 0.023894822
-0.023991428 0.016124621 0.023901645
-0.023993138 0.016616415 0.023904888
-0.023994708 0.01706804 0.023907866
-0.02399713 0.017765129 0.023912463
-0.0239984 0.018130112 0.02391487
-0.024000434 0.018715335 0.023918729
-0.024001848 0.019122399 0.023921413
-0.024003414 0.019573141 0.023924386
-0.024005258 0.020103659 0.023927884
-0.024006773 0.020539381 0.023930758
-0.024008866 0.021141298 0.023934728
-0.02401052 0.021617599 0.023937868
-0.024011906 0.022015963 0.023940496
-0.024014026 0.022626143 0.023944519
-0.024015749 0.023121413 0.023947785
-0.02401742 0.023602623 0.023950959
-0.024018969 0.024048381 0.023953898
-0.024020663 0.024535105 0.023957107
-0.024022616 0.025097728 0.023960818
-0.024024364 0.025600143 0.023964131
-0.024026096 0.026098508 0.023967419
-0.024027904 0.02661879 0.02397085
-0.024029788 0.027160447 0.023974421
-0.024031276 0.027588647 0.023977244
-0.024033038 0.028096043 0.023980591
-0.024036607 0.029122639 0.02398736
-0.024038216 0.029585745 0.023990415
-0.024039866 0.030060463 0.023993546
-0.024043025 0.030969113 0.023999538
-0.024043653 0.031150091 0.02400073
