# .PCD v0.7 - Point Cloud Data file format
VERSION 0.7
FIELDS x y z
SIZE 4 4 4
TYPE F F F
COUNT 1 1 1
WIDTH 1175
HEIGHT 1
VIEWPOINT 0 0 0 1 0 0 0
POINTS 1175
DATA ascii
-0.020116648 0.0013552537 -0.0005089537
-0.017584855 0.0012223566 -0.00054378947
-0.014109304 0.0013880046 -0.00053165719
-0.013570586 0.0014116636 -0.0005510833
-0.013126537 0.0014085181 -0.00053800881
-0.012666557 0.0013450547 -0.00050375838
-0.010753111 0.0013231721 -0.00057514792
-0.0060816016 0.0012126768 -0.00058387953
-0.005237008 0.0012475719 -0.00056724233
-0.0046198796 0.001217084 -0.00058342516
-0.0041262284 0.0013886404 -0.00057089108
-0.0036959373 0.0014229135 -0.00054150022
-0.0023441107 0.0014526868 -0.0006559692
-0.0018323692 0.0013387048 -0.00052502227
-0.0010766784 0.0010263621 -0.0005724642
-0.00098094996 0.0013218438 -0.00064126123
-0.021603694 0.0018275939 -0.00053242745
-0.021108869 0.0018529779 -0.00052723708
-0.02065525 0.0019121382 -0.00053238496
-0.019649131 0.0019240939 -0.00055316521
-0.01931764 0.0017997951 -0.00053301686
-0.018004371 0.0015267942 -0.00052275765
-0.017763421 0.0018203334 -0.00052428164
-0.016603593 0.0019658087 -0.00054402661
-0.016060492 0.0018871608 -0.00054075161
-0.015664961 0.0017497455 -0.00054575235
-0.014568362 0.0018336895 -0.0005524173
-0.014299115 0.0017456634 -0.00055910723
-0.013822608 0.0018246629 -0.00056461914
-0.013134868 0.0017979648 -0.00056987436
-0.012621791 0.0019175054 -0.00054271135
-0.01104888 0.0018313546 -0.0005228779
-0.0061076861 0.0019656608 -0.00054219912
-0.0040965811 0.0019921083 -0.00055035274
-0.0036571797 0.0018844652 -0.000556655
-0.0032411555 0.0016480123 -0.00050647272
-0.0025818723 0.0018802836 -0.0006894283
-0.0022153992 0.0019173841 -0.00065017806
-0.00066375831 0.0017594503 -0.00059428811
-0.021537164 0.0022965495 -0.00053570524
-0.021145552 0.0023232347 -0.00051554502
-0.020626249 0.0023941186 -0.00053669175
-0.020113196 0.0024252527 -0.00052315556
-0.019667571 0.0023506423 -0.00053666905
-0.019122124 0.0023194547 -0.000516759
-0.01757873 0.0023264063 -0.00053304428
-0.017173514 0.0020315284 -0.00054848398
-0.016601289 0.0024250371 -0.00052538887
-0.016096884 0.0024331626 -0.00054437277
-0.015632693 0.0024138335 -0.00053821318
-0.015129453 0.0022173168 -0.00051824021
-0.014004941 0.0023044199 -0.00052097969
-0.012626357 0.0023760363 -0.00051822537
-0.012062555 0.002227312 -0.00055198936
-0.011658592 0.0024106421 -0.00054491445
-0.011101922 0.0021864749 -0.000549794
-0.0079900343 0.0024380246 -0.00053698802
-0.0065102549 0.002381074 -0.00053403166
-0.0061307158 0.0024431762 -0.00054218096
-0.0055470811 0.0020045745 -0.0005647919
-0.0052119317 0.002396289 -0.0005494114
-0.0041016894 0.0024534347 -0.00054653472
-0.0037077977 0.0024291552 -0.00055497041
-0.002585225 0.0024072686 -0.00066811248
-0.0018247972 0.0022357448 -0.00060279632
-0.0010691877 0.0022103633 -0.00050675852
-0.00059121894 0.0022048538 -0.00060363678
-0.02109614 0.002916662 -0.00052203343
-0.020673223 0.0028818834 -0.00052447547
-0.020074811 0.0028708647 -0.00054373557
-0.019599292 0.0029603299 -0.00053771387
-0.019169152 0.0028508371 -0.00050922076
-0.0155667 0.0028355857 -0.00050348183
-0.014652546 0.0027212859 -0.00052853057
-0.01165899 0.0028144163 -0.00053287338
-0.010599831 0.00290557 -0.00051477109
-0.010130636 0.0028653583 -0.0005127787
-0.0061259894 0.0029312028 -0.00053092127
-0.0056731086 0.0027776114 -0.00061226753
-0.00517816 0.0029318102 -0.00058809976
-0.0047186669 0.0029401835 -0.00056898652
-0.004071597 0.0029212011 -0.0005446173
-0.0036129537 0.00298286 -0.00059264287
-0.0026090173 0.0029679385 -0.00064453681
-0.002124676 0.0026850118 -0.00060001051
-0.020613519 0.0033557448 -0.00050289533
-0.020140676 0.0034041647 -0.00054340169
-0.019625155 0.0034062443 -0.00051939825
-0.019113988 0.0033165778 -0.00051354663
-0.018648254 0.0034478726 -0.00050085271
-0.013592716 0.0033503333 -0.0005242452
-0.011043369 0.0034268312 -0.00052208436
-0.01066124 0.0034238766 -0.00050819729
-0.010215193 0.0033773971 -0.00052796159
-0.0081181461 0.0032191018 -0.00052704825
-0.0076349759 0.0032757097 -0.00053451984
-0.0071014678 0.0034249602 -0.00052355684
-0.0062358333 0.0032303636 -0.00055150269
-0.0056985551 0.0033684219 -0.00062666653
-0.0050626323 0.0033477545 -0.00062930887
-0.0045982427 0.0034104949 -0.00055477471
-0.0040065106 0.0034745038 -0.00057627785
-0.0035292879 0.0033713987 -0.00052784383
-0.0030737931 0.0032459614 -0.00058941456
-0.0025327653 0.0034100125 -0.00059208699
-0.002139336 0.0033787556 -0.000598368
-0.0017491152 0.0031433976 -0.00057008275
-0.021178141 0.0038813138 -0.00050634914
-0.020664876 0.0039158501 -0.00052097463
-0.020074733 0.0038919128 -0.00051971385
-0.019634694 0.0038548906 -0.00051364303
-0.019167759 0.0038136179 -0.0005106919
-0.01766867 0.0039570308 -0.00053226994
-0.013523769 0.0039234576 -0.00051482714
-0.010187237 0.0039412561 -0.00051208329
-0.0086407531 0.0035736067 -0.00050106022
-0.008121958 0.0038818244 -0.00052598713
-0.0077915406 0.0038187013 -0.00050910469
-0.0066669383 0.0037394655 -0.00055620266
-0.0059924899 0.0038826312 -0.00056321523
-0.0046445979 0.0039633657 -0.00061292946
-0.0041690371 0.0039471588 -0.00059318275
-0.0036561636 0.0039751139 -0.00060850091
-0.0031755907 0.0038952811 -0.00060212729
-0.0021141297 0.0039967471 -0.00062817894
-0.0015850171 0.0037689202 -0.00058718643
-0.00069076405 0.0039303373 -0.00053434086
-0.020601571 0.0043647271 -0.00050295854
-0.020107646 0.0043458743 -0.00051233266
-0.018670963 0.0041397866 -0.00051920366
-0.018119175 0.0041421736 -0.00054499996
-0.017537657 0.0043533491 -0.00055391924
-0.017099297 0.0043916791 -0.00052652619
-0.016681407 0.0044275243 -0.00051234476
-0.014049549 0.0043295091 -0.00050643907
-0.013624202 0.0044216467 -0.00050293247
-0.0085908603 0.0041514374 -0.00053717871
-0.0056843315 0.0042822007 -0.00057945587
-0.0051280521 0.0042381343 -0.00055330223
-0.0038093375 0.0042861244 -0.00060829765
-0.0030518388 0.004436194 -0.00059257599
-0.0026062834 0.004242979 -0.00058209931
-0.0016338878 0.0044456106 -0.00060877565
-0.0011232905 0.0042554089 -0.00055373588
-0.0006039124 0.0044021029 -0.00056763145
0.00089456671 0.0044992561 -0.00051767565
0.0058994167 0.0044404571 -0.00053945591
0.0063979593 0.0044191792 -0.00055662286
-0.020550665 0.0048241774 -0.00050157495
-0.019664878 0.0049175108 -0.00050363271
-0.017007273 0.0047300672 -0.00058855099
-0.016719205 0.0047673471 -0.00050889282
-0.014667097 0.0045951605 -0.00050040946
-0.01312813 0.0048698573 -0.00053008879
-0.0126103 0.0049282783 -0.00053831801
-0.012097429 0.0049436796 -0.00050892954
-0.011606771 0.0048982459 -0.00050878181
-0.0092968484 0.0048887641 -0.00053101429
-0.0052798809 0.0048595723 -0.00056707801
-0.0032440638 0.0048718713 -0.00060329266
-0.0026436313 0.0049333279 -0.00059361767
-0.0020938581 0.0047262572 -0.00060127414
-0.0016128065 0.0049807117 -0.00061227049
-0.0010968671 0.0048922417 -0.00060612685
-0.00062082114 0.0049567218 -0.00057117915
-0.00010665582 0.0047258446 -0.00058228592
0.00036462813 0.004727534 -0.00058921473
0.00084074994 0.0049595865 -0.00054087129
0.0012779317 0.004719683 -0.00051150605
0.0059532691 0.0048138523 -0.00055051839
-0.019133329 0.0053151231 -0.0005224091
-0.013106661 0.0053558173 -0.00050886313
-0.012642377 0.0054193684 -0.00051097665
-0.012200309 0.0053983741 -0.00052542373
-0.0096186912 0.0052578854 -0.00053734926
-0.0047643688 0.0052329935 -0.00054841908
-0.0026453692 0.0054059494 -0.00059412309
-0.0020902741 0.0053977259 -0.00062363187
-0.0016078163 0.0054339063 -0.00056778267
-0.0011721608 0.0054062195 -0.00063361594
-0.00079789013 0.0054475307 -0.00064098393
-0.00030148088 0.0053782482 -0.00053268723
0.00031549775 0.0053865602 -0.00055345154
0.0014969215 0.0052208947 -0.00050872861
-0.018748756 0.0057484452 -0.00055447058
-0.015591859 0.0059467684 -0.00050112995
-0.01059057 0.0059288139 -0.00052372628
-0.0036081113 0.005939493 -0.00057665713
-0.0030999868 0.0057298769 -0.00059932441
-0.0025901969 0.0059386468 -0.00060325977
-0.0022126804 0.0059432988 -0.00055947516
-0.0016490442 0.0059140124 -0.0006015487
-0.0012663123 0.0058419202 -0.00066369766
-0.018252162 0.0061185923 -0.00055415719
-0.016185144 0.0064461664 -0.00051971141
-0.015664641 0.0064142016 -0.00051723758
-0.015167873 0.0063839429 -0.00051914045
-0.014642417 0.0063921129 -0.000510732
-0.014121681 0.0063669346 -0.00051553594
-0.010786632 0.0064800503 -0.00052170473
-0.0058597326 0.0062734187 -0.00053788564
-0.0051090387 0.0062878765 -0.00054643198
-0.0045827185 0.0062385378 -0.00057471113
-0.0040546805 0.0062217815 -0.00056938094
-0.0031602168 0.0064153401 -0.0005863203
-0.00264845 0.0064325826 -0.00060822687
-0.0021457653 0.0064537982 -0.00056841108
-0.0016417743 0.0064147795 -0.00060507125
-0.0011364716 0.0064738705 -0.00060821243
-0.016604887 0.0069332616 -0.00054276938
-0.01614101 0.006881244 -0.0005685963
-0.015551113 0.0068851085 -0.00055193692
-0.015084001 0.0069680344 -0.00051193906
-0.0088807829 0.0067258803 -0.00051518099
-0.0043598218 0.0068887081 -0.00058608345
-0.0036180853 0.0067495229 -0.00065313414
-0.0031513236 0.0069700051 -0.00062710635
-0.0026666194 0.0069832704 -0.00056957675
-0.002141909 0.0069429171 -0.00058235019
-0.0016385206 0.0069355951 -0.0005776778
-0.001166297 0.0069163656 -0.00050613744
-0.020615142 0.007373875 -0.0005040348
-0.017630754 0.007421541 -0.00050817843
-0.017143255 0.0073468033 -0.00051321392
-0.016622303 0.0073580425 -0.00058829016
-0.01610115 0.007464421 -0.0006107025
-0.015608512 0.0074019874 -0.00055467593
-0.015052258 0.0073833992 -0.00050363137
-0.0085715251 0.0072190138 -0.00050836912
-0.006232989 0.0074326815 -0.00054899172
-0.0037160786 0.0073001687 -0.0005320108
-0.002592497 0.0074052489 -0.000565361
-0.0021729805 0.007380493 -0.00054038869
-0.0016628599 0.0073419064 -0.00054862606
-0.0013256222 0.0073116426 -0.00054406776
-0.017098621 0.0078846142 -0.0005957181
-0.016620951 0.0079081338 -0.00062811305
-0.016135393 0.0079051657 -0.0006324072
-0.015697142 0.0078724874 -0.0005813092
-0.015127582 0.0079033151 -0.00052564207
-0.01019937 0.0076124836 -0.00052963826
-0.0066595175 0.0079323417 -0.0005383059
-0.0061371522 0.0079030991 -0.00053962122
-0.0056156856 0.0077528027 -0.00053709
-0.003063587 0.0076877461 -0.00058270479
-0.0027036406 0.0078889001 -0.00054095377
-0.023147063 0.0083952975 -0.00052054576
-0.017623078 0.0083280718 -0.00050487136
-0.016670747 0.0084421206 -0.00057831116
-0.016142404 0.0083777141 -0.00063611486
-0.015623532 0.0083448188 -0.00057980424
-0.015146791 0.0084320391 -0.00057257642
-0.013601352 0.0084141409 -0.00051612704
-0.006312598 0.0083653163 -0.00054112449
-0.0051933103 0.0081849117 -0.00055500632
-0.0046949941 0.0083882902 -0.00055683631
-0.0036955434 0.0084848935 -0.00050592981
-0.0031205446 0.0083387811 -0.00055208267
-0.0026925253 0.0084365103 -0.0005120968
-0.0022003842 0.0083671072 -0.00053389173
-0.022623144 0.0088777049 -0.00056757499
-0.021654068 0.0089473808 -0.00051755912
-0.016650096 0.0089315642 -0.00055970141
-0.01618729 0.0088813687 -0.00057735317
-0.015601262 0.0088690817 -0.00053902669
-0.01514198 0.0088985292 -0.00053850544
-0.013627656 0.00884178 -0.00050973205
-0.010673136 0.0089220116 -0.00050283293
-0.0045378041 0.008919565 -0.00057512108
-0.0041270759 0.0087533109 -0.00056816556
-0.0036865715 0.0089339316 -0.0005785317
-0.0031350106 0.0089578331 -0.00056467718
-0.0026112488 0.0088742739 -0.00056710641
-0.0020844957 0.0089745261 -0.00055237068
-0.00085823261 0.0087134363 -0.0005525875
-0.022638729 0.0094160009 -0.00055329094
-0.022111068 0.0093031321 -0.00054796238
-0.021154247 0.0093631558 -0.00052657502
-0.020637244 0.0093917949 -0.00052140653
-0.020154936 0.0094199432 -0.00054982002
-0.019663908 0.0093221543 -0.00052484102
-0.017155444 0.009399428 -0.00053419074
-0.016668847 0.0094264094 -0.00050389412
-0.016086765 0.0094299298 -0.00051667198
-0.011150907 0.0093758767 -0.0005270564
-0.010605713 0.0093651237 -0.00058023498
-0.010087792 0.009363831 -0.00050083839
-0.0051715262 0.0092390161 -0.00052753102
-0.0046196808 0.0094248662 -0.00052882184
-0.0041398094 0.0094409017 -0.00059091765
-0.0036626244 0.0093538724 -0.00059310719
-0.0031168873 0.0094674639 -0.0006306463
-0.0026664347 0.009387821 -0.0005777867
-0.0022124874 0.0094568627 -0.0005550519
-0.0017530196 0.0094762845 -0.0005291251
-0.00086212117 0.0091780582 -0.00053728698
0.022620428 0.0090610106 -0.00058909314
-0.02214551 0.0097967153 -0.0008078363
-0.021654598 0.009828398 -0.00055411388
-0.021136891 0.009892907 -0.00068029785
-0.020654434 0.0098642046 -0.0005730699
-0.020139869 0.0098978896 -0.00051118981
-0.018131457 0.0098324902 -0.00053121685
-0.016256098 0.0098533779 -0.00050243444
-0.01261572 0.0098045757 -0.00050712994
-0.011635319 0.0098981299 -0.00052223541
-0.010069061 0.0099080419 -0.00050327566
-0.0050571803 0.0099113286 -0.00052725128
-0.0046402812 0.0098889144 -0.00054348266
-0.0042273835 0.0096935341 -0.00060516992
-0.002786549 0.0098326076 -0.00066183705
-0.0021332102 0.0099573163 -0.00057186245
-0.001644133 0.009985189 -0.00054861582
-0.021593213 0.010169545 -0.00082924514
-0.021070931 0.010393188 -0.0005543899
-0.020129213 0.010383716 -0.00054211891
-0.019646602 0.010352097 -0.0005119734
-0.017641157 0.01040747 -0.00053196202
-0.0056482162 0.010015893 -0.0005096487
-0.0051338971 0.010433247 -0.00051436404
-0.0048266128 0.010360636 -0.00054352765
-0.0020648793 0.010371909 -0.0005547945
-0.0016171446 0.010496338 -0.00053705857
-0.0012520757 0.010056075 -0.0005467108
-0.00081369653 0.010175094 -0.00054523197
0.00047843077 0.010389932 -0.00051593967
-0.021290857 0.010782238 -0.00080688426
-0.020683531 0.010867771 -0.00051429658
-0.020231385 0.010863947 -0.00051921478
-0.017172465 0.010910798 -0.00051440822
-0.0081350124 0.010941873 -0.00050382153
-0.0071173627 0.010950814 -0.00052548386
-0.0055690622 0.010976285 -0.00051956496
-0.0051932246 0.010923723 -0.00053772971
-0.0046746871 0.010983068 -0.00052041595
-0.004084948 0.010938328 -0.0005656564
-0.0037957376 0.01074137 -0.00052109011
-0.0016465648 0.010903681 -0.00056691683
0.00038704975 0.01093596 -0.00053698017
0.00087879429 0.010949828 -0.00053016486
0.0013733923 0.010938326 -0.00050645601
-0.017193116 0.011395887 -0.00053710816
-0.014158499 0.011461435 -0.00050100964
-0.0075715454 0.01142664 -0.00050287868
-0.0065555922 0.011016821 -0.00052259734
-0.0051047197 0.011462748 -0.00052750693
-0.0046421653 0.011387984 -0.00052874652
-0.0041689505 0.011451642 -0.00059837726
-0.0037464525 0.011473079 -0.00057232066
-0.001665632 0.011446932 -0.00055038696
-0.0011542899 0.011367803 -0.00053909729
-0.00063458295 0.011473899 -0.0005219726
-0.00013398472 0.011445765 -0.00051334524
0.00080389529 0.011475597 -0.00051640358
0.0012130253 0.011464196 -0.00052746804
-0.012706812 0.01189783 -0.00050337327
-0.0071500307 0.011989453 -0.00051944656
-0.0051854579 0.011878363 -0.0005163966
-0.0046710637 0.011907497 -0.0005123798
-0.0041375668 0.011952491 -0.00061876513
-0.0035875263 0.011898698 -0.00057364383
-0.00065729651 0.01192325 -0.00051837321
-0.00014128245 0.01191253 -0.00052363542
0.00033879827 0.011945668 -0.00052401243
0.00074645126 0.011902777 -0.00050198816
-0.016639639 0.012321046 -0.00054071803
-0.0071516936 0.012495521 -0.00053470349
-0.0066596814 0.012440953 -0.00050786632
-0.0046811588 0.012410486 -0.00056881027
-0.0041097384 0.012484315 -0.00062081881
-0.0036586234 0.012420559 -0.00059649604
-0.0011819883 0.012386494 -0.00052665512
-0.00069936644 0.012415376 -0.00056410814
-0.00016915018 0.012433433 -0.0005692605
-0.016668689 0.012924882 -0.00050524477
-0.016189156 0.012898538 -0.00051350269
-0.0091587799 0.012891932 -0.00051069201
-0.0071907504 0.0129469 -0.00050089636
-0.0046486072 0.012931581 -0.00051868317
-0.0041491585 0.012937009 -0.00056983443
-0.0036951138 0.012987641 -0.00056478882
-0.0031678022 0.012923025 -0.00052631117
-0.0026116124 0.012924532 -0.00051957869
-0.0016876023 0.01292228 -0.00053492218
-0.0011578216 0.012951151 -0.00059416005
-0.00065199682 0.012948589 -0.00061046332
-8.1209466e-05 0.012951725 -0.00054049509
-0.014150402 0.01340962 -0.00050134963
-0.011682253 0.013441821 -0.0005199163
-0.00467344 0.013417914 -0.00050246547
-0.0041345567 0.013476965 -0.00056887174
-0.0036031923 0.013429272 -0.00056588248
-0.0030657749 0.013420933 -0.00051062147
-0.0022023479 0.01342362 -0.00053324969
-0.0016148172 0.013360594 -0.00053958746
-0.0011640254 0.013429953 -0.00055828784
-0.00065388589 0.013442346 -0.00055624847
-0.017698929 0.013858233 -0.0005038589
-0.017162526 0.013896374 -0.00054204627
-0.016662752 0.013896259 -0.00051215565
-0.013669902 0.013942475 -0.00052021496
-0.012184116 0.013900808 -0.00050953456
-0.011673111 0.013906419 -0.0005071403
-0.011164724 0.013961508 -0.00053504721
-0.0041155843 0.013969088 -0.00052183453
-0.0036421418 0.01396188 -0.00055576902
-0.0031373613 0.013878915 -0.00052139314
-0.0017104343 0.013977822 -0.00050927704
-0.00075901672 0.013873538 -0.00050270068
-0.00022636564 0.013514294 -0.00050697051
-0.022690313 0.014394362 -0.00075321994
-0.018160062 0.014362037 -0.00051026663
-0.017636713 0.014345806 -0.00050543365
-0.017151745 0.014349629 -0.00050887972
-0.016653815 0.014445642 -0.00051149755
-0.014172256 0.014372732 -0.00056239316
-0.013132073 0.014383392 -0.00052482018
-0.011646158 0.014395768 -0.00053985784
-0.011200309 0.01441955 -0.00054726284
-0.010655942 0.014396838 -0.00054378016
-0.010102604 0.014433716 -0.00053168129
-0.0091925766 0.014460854 -0.00051692547
-0.0036513829 0.014414777 -0.00052144297
-0.0031458521 0.014454699 -0.00050096476
-0.018669363 0.014902109 -0.00051189121
-0.018116765 0.014886656 -0.00050869421
-0.016666036 0.01489837 -0.00052557752
-0.016124262 0.014902476 -0.00052707223
-0.015569838 0.014924572 -0.00050037348
-0.014688459 0.014940308 -0.00053744658
-0.011098399 0.014777929 -0.00050437043
-0.010652318 0.014909859 -0.0005283411
-0.010099363 0.014843143 -0.00051484554
-0.00966853 0.014906027 -0.00053340651
-0.007660144 0.014900221 -0.00052703347
-0.0036470252 0.014937478 -0.00050269696
-0.022730213 0.015219353 -0.00077848381
-0.017112058 0.015454743 -0.00079880387
-0.016616957 0.015394802 -0.00080408697
-0.016189311 0.01545413 -0.00080308487
-0.015219069 0.015409154 -0.0005044312
-0.014682652 0.015405258 -0.00051295682
-0.0086785648 0.015421801 -0.00053581444
-0.0081386324 0.015420598 -0.000509587
-0.0066477135 0.015450381 -0.00050157553
-0.0056880503 0.015423813 -0.00052922271
-0.0051313154 0.015458916 -0.00052086893
-0.0046998397 0.015450725 -0.00052016461
-0.0011362477 0.015433277 -0.00052483613
-0.022511944 0.0157446 -0.00073608756
-0.022123802 0.015776759 -0.0007645837
-0.021880588 0.015925359 -0.00075565162
-0.019438194 0.015969422 -0.0007399657
-0.018150326 0.01594107 -0.000792359
-0.017591145 0.015961671 -0.00082507136
-0.017104296 0.015847895 -0.00084852643
-0.016629053 0.015757527 -0.00087851897
-0.016305001 0.01582583 -0.00084482442
-0.015715092 0.015561485 -0.00079268281
-0.0061812866 0.015963752 -0.00054091099
-0.0056356573 0.015892444 -0.00057639531
-0.0051306318 0.015862612 -0.00061068067
-0.022070976 0.016345557 -0.00072786864
-0.021642534 0.016404783 -0.00079687638
-0.019783232 0.016445801 -0.00076333387
-0.019182207 0.016255781 -0.0007865298
-0.018693486 0.016208366 -0.00079530507
-0.018209949 0.016214946 -0.00076790212
-0.0086929072 0.016484004 -0.00050484459
-0.0062003406 0.016403567 -0.00056100765
-0.0056239441 0.016450834 -0.00053632166
-0.0051962226 0.016414976 -0.00057675841
-0.0046805586 0.016389443 -0.00051326561
-0.021107342 0.01670965 -0.00077339099
-0.019684404 0.016875075 -0.00077252288
-0.019170718 0.01688881 -0.0008219278
-0.018909503 0.016736982 -0.00084059825
-0.0086468728 0.016888605 -0.00050882593
-0.0056760465 0.016911374 -0.00051216618
-0.005136949 0.016936425 -0.00051712792
-0.021148017 0.017333589 -0.00052001013
-0.020684376 0.017262673 -0.00074294885
-0.020132681 0.017211791 -0.00075217424
-0.019693077 0.017289439 -0.00076164154
-0.019203644 0.017283214 -0.00075678516
-0.0096944366 0.017392388 -0.00050700438
-0.0091054989 0.017460331 -0.00055989361
-0.008667754 0.017413801 -0.00051159953
0.021475211 0.017259089 -0.00050519151
0.02167201 0.017069137 -0.0005092728
-0.021657538 0.017693162 -0.00073134666
-0.021196488 0.017835248 -0.0007407316
-0.020822685 0.017774884 -0.00075060525
-0.020162459 0.017940324 -0.0007535324
-0.019634183 0.017936183 -0.0007406834
-0.019238595 0.017889407 -0.00073827326
-0.0092096729 0.017906299 -0.00052835362
-0.0086830854 0.017938562 -0.00053454994
-0.008192081 0.017924324 -0.00050543039
-0.021798212 0.018391758 -0.00073437567
-0.021247825 0.018385397 -0.0007585116
-0.020689597 0.018374624 -0.00075842824
-0.020206358 0.018331384 -0.00079145492
-0.01967228 0.018438116 -0.00079677545
-0.019182978 0.018439127 -0.00076795591
-0.018895138 0.018394282 -0.00076799525
-0.01169844 0.018414216 -0.00051512115
-0.011170516 0.018438466 -0.00051762065
-0.0086587667 0.018424759 -0.00053470256
-0.021707714 0.018891603 -0.00074064324
-0.021225011 0.018883483 -0.00077597843
-0.020642692 0.018822797 -0.00081504788
-0.020196689 0.018857349 -0.00084662903
-0.019689953 0.01888244 -0.00087822566
-0.019188328 0.01888643 -0.00087703438
-0.018699443 0.018855782 -0.00079751143
-0.018211309 0.018776245 -0.00075917848
-0.016170746 0.018904191 -0.00073766091
-0.015815556 0.018848829 -0.00073770742
-0.01116029 0.018891759 -0.00050700171
-0.010653764 0.018912578 -0.00051883172
-0.0096695498 0.018908331 -0.00053356506
-0.009169898 0.018907523 -0.00052843505
-0.0086789653 0.018903278 -0.00051435811
0.022745334 0.018504495 -0.00053544453
-0.022079444 0.019114893 -0.00073090696
-0.021715112 0.019365795 -0.00077185896
-0.021112742 0.019407824 -0.00082057621
-0.020687278 0.019340485 -0.00084772042
-0.020288656 0.019343812 -0.00091118517
-0.019865556 0.019152667 -0.00095176301
-0.018529898 0.019169271 -0.00091544015
-0.01819423 0.019168282 -0.00082643412
-0.017680336 0.019139502 -0.00073745829
-0.017212722 0.019124582 -0.00075508311
-0.016709212 0.019096822 -0.0007705125
-0.015068382 0.019131854 -0.00075421692
-0.014890626 0.019104147 -0.00075424259
-0.012189013 0.019373806 -0.00050376792
-0.011167618 0.019377884 -0.00050394307
-0.0096678045 0.019421229 -0.00050621934
-0.0042258436 0.019461198 -0.00050342421
0.022832088 0.019041872 -0.00051142124
-0.022040199 0.01966311 -0.00074191991
-0.021674236 0.019840458 -0.00077810569
-0.02114095 0.019917356 -0.00077932689
-0.020679794 0.01980463 -0.00086662965
-0.020385828 0.019683668 -0.00087877561
-0.01214318 0.019905165 -0.00054902106
-0.011711806 0.019938722 -0.0005234782
-0.010704377 0.019936062 -0.0005202209
-0.022000784 0.020212455 -0.00075329083
-0.021618551 0.020361509 -0.00074681256
-0.021140499 0.020394675 -0.00070278253
-0.020923741 0.020496571 -0.00068115641
-0.01764752 0.020160288 -0.00073441194
-0.017196307 0.020256612 -0.00072931335
-0.012436806 0.020378519 -0.00073344738
-0.011696868 0.020420745 -0.00054596626
-0.0041718856 0.020439418 -0.00051163381
-0.00062752655 0.020435121 -0.00051447691
0.023162017 0.020010691 -0.00051568984
-0.022216495 0.020721281 -0.00067170197
-0.021673916 0.020901212 -0.00071590615
-0.021426521 0.020975966 -0.00069796585
-0.017959226 0.020500068 -0.00072182133
-0.01701314 0.020782668 -0.00071927032
-0.013146223 0.020903446 -0.00050627795
-0.00017209584 0.02096818 -0.00050912664
-0.022308961 0.021375826 -0.00066651474
-0.016742261 0.021214612 -0.00071330194
0.023226317 0.021387821 -0.00051558274
-0.02156854 0.021627106 -0.00067927339
-0.021128543 0.02175986 -0.00068802264
-0.020793676 0.021707671 -0.00068806653
-0.016372858 0.021803619 -0.00070516736
-0.02126381 0.022210445 -0.00066120329
-0.021822112 0.023334932 -0.00066159305
-0.0036479584 0.023840075 -0.00051456841
-0.0031462249 0.023924982 -0.00053436297
-0.002716071 0.023896493 -0.00050811411
0.016809504 0.026467409 -0.00051088346
0.017332509 0.026453324 -0.00053138309
0.017869918 0.026715092 -0.00054459315
0.018314824 0.027968027 -0.00050193362
0.018474568 0.028397055 -0.00057483389
0.018778209 0.028455665 -0.00058907445
-0.0016770205 0.028759308 -0.00057384261
-0.0012200573 0.028708078 -0.0005451013
0.018957591 0.028780814 -0.000608692
0.019350354 0.028941378 -0.00052738865
0.02017225 0.030405262 -0.00057854108
0.0061440016 0.030825103 -0.00057651976
0.019253537 0.030855417 -0.00063329481
0.019772595 0.030523872 -0.00057586853
0.0030197189 -0.024573479 -0.00040666247
0.0035255216 -0.024526507 -0.00048216601
-0.019905381 -0.024104364 -0.00021483761
-0.019324251 -0.024048023 -0.00029747386
-0.015568561 -0.024069607 -4.0743849e-05
-0.014759704 -0.024119155 -8.112457e-05
-0.014055543 -0.024257906 -0.00011383733
-0.0135623 -0.024059759 -0.00021155376
-0.012994477 -0.024015764 -9.0620946e-05
-0.011575531 -0.024002312 -0.0003548548
-0.010594196 -0.024013346 -0.000148208
-0.0090439459 -0.024038838 -0.00010519006
-0.008513785 -0.024111357 -9.2815346e-05
-0.0082290731 -0.024235081 -4.7046444e-05
-0.0074980278 -0.02403947 -3.3860706e-05
-0.0065682409 -0.024082629 -1.833032e-05
-0.0060897628 -0.024039974 -8.0454454e-05
-0.0055874763 -0.024084629 -0.00018074244
-0.0050627375 -0.02418308 -0.00021438953
-0.0048461207 -0.024011368 -0.00028551789
-0.0042015109 -0.02405541 -0.00028407527
0.0027982343 -0.024257848 -0.00044265477
0.0054550222 -0.024046233 -0.00039742602
0.0059290323 -0.024214417 -0.00044810883
0.0063679558 -0.024193956 -0.00045165012
0.01144409 -0.024043804 -0.00016640147
0.011806484 -0.024198463 -0.00012733485
0.012019953 -0.024355672 -0.00011253025
0.012759237 -0.024232673 -0.0002077525
0.016400814 -0.024437396 -2.9689574e-05
0.016681995 -0.02418671 -9.9612633e-05
0.022403033 -0.024256855 -0.00022913673
-0.022548839 -0.02378308 -1.1392694e-05
-0.022143172 -0.023890667 -0.00010141253
-0.021818768 -0.023736237 -0.00021056703
-0.021231405 -0.023615262 -0.00026371842
-0.020550579 -0.023774039 -0.00024446234
-0.020016644 -0.023633122 -0.00025932956
-0.019578606 -0.023597652 -0.00030017772
-0.018991256 -0.023641441 -0.00034211337
-0.017581601 -0.023506837 -0.00031178963
-0.017079515 -0.023602247 -0.0002537886
-0.015258229 -0.02356904 -0.00026093214
-0.014544413 -0.023610752 -0.00014050421
-0.014045782 -0.023707503 -0.00019130243
-0.013533637 -0.023585089 -0.0002120937
-0.013062419 -0.023762122 -0.00042763117
-0.012667615 -0.02377069 -0.00018386298
-0.012154918 -0.023669759 -9.8388875e-05
-0.011738521 -0.02392472 -0.00021314668
-0.011218394 -0.023632837 -0.00020705839
-0.010547841 -0.023550941 -8.2673272e-05
-0.010108043 -0.023899974 -0.00012753578
-0.0097525306 -0.023612117 -0.00014519774
-0.0093351193 -0.023707956 -0.00024541726
-0.0087084537 -0.023575773 -0.00016946264
-0.0081815664 -0.023682272 -0.00022302977
-0.0077238744 -0.023763312 -0.00016001711
-0.0071832789 -0.023673858 -0.00028667907
-0.0065427399 -0.023593817 -0.00042193849
-0.0061048819 -0.023770068 -0.00031377308
-0.0055156345 -0.023585694 -5.2047573e-05
-0.0051799263 -0.023702182 -0.00026367878
-0.004562099 -0.023749113 -0.00021158346
-0.004035884 -0.023761697 -0.000147271
-0.0037615658 -0.023566462 -0.00021619326
-0.0030216652 -0.023520593 -0.00022423264
-0.0025422839 -0.023521142 -0.00037465722
-0.0012253319 -0.023710107 -0.00042310508
-0.00069623627 -0.023930216 -0.00041975916
-4.7893205e-05 -0.023519995 -0.00044530691
0.00019776195 -0.023934375 -0.00035622908
0.00097342808 -0.023526909 -0.00010526332
0.0013536696 -0.02370977 -8.7282271e-05
0.0019880601 -0.02356267 -0.00013209018
0.0023121797 -0.023932621 -0.00030893504
0.0025058016 -0.023603143 -0.00012177339
0.0049121701 -0.02357991 -0.00043805502
0.0052655619 -0.023707855 -0.00044975241
0.006459442 -0.023501147 -0.00043961679
0.0069867768 -0.023501439 -0.00012451189
0.0073530693 -0.023592493 -0.00034045597
0.0085064983 -0.023501877 -0.0001152654
0.010455621 -0.023527186 -8.2325161e-05
0.010763457 -0.023897365 -9.9033743e-05
0.011895164 -0.023587344 -0.00044630608
0.012473576 -0.02398539 -0.000231938
0.012995979 -0.023567418 -0.00014089735
0.013413562 -0.023904223 -0.00014856708
0.013762852 -0.023706015 -0.00041773979
0.014012185 -0.023775708 -0.00045809278
0.014768817 -0.023890089 -0.00021224283
0.015988253 -0.023726104 -0.00012146437
0.016474906 -0.023550048 -0.00019099639
0.016959675 -0.023982305 -0.00019666
0.017458584 -0.023688957 -0.00016643232
0.017761998 -0.023532296 -0.00028258373
0.018209264 -0.023949832 -9.0251124e-05
0.018759785 -0.023676645 -0.00020711543
0.019453324 -0.023680981 -8.0780097e-05
0.019984515 -0.023699481 -6.3785905e-05
0.020471927 -0.023961835 -4.1483319e-05
0.020952348 -0.023761289 -0.00012673045
0.021427365 -0.023941685 -8.8732457e-05
0.021998676 -0.023876427 -0.00017093361
0.02246565 -0.023971474 -0.00018711586
0.022971064 -0.023734787 -0.00022525396
0.023420209 -0.023728475 -0.00022063608
-0.023573764 -0.023120765 -0.00022443396
-0.023256261 -0.02302203 -0.00024068437
-0.022008289 -0.02307692 -0.00031666516
-0.021541048 -0.023173997 -0.00036916533
-0.02101009 -0.023095494 -0.00034840161
-0.020519836 -0.023102157 -0.0003268806
-0.020008603 -0.023092503 -0.00029972533
-0.019269112 -0.023130678 -0.00027273665
-0.018537551 -0.023304494 -0.00031929219
-0.018101543 -0.023273259 -0.00033581327
-0.01756037 -0.023138665 -0.00031833939
-0.016692944 -0.023226231 -0.00034889471
-0.016055662 -0.023279052 -0.00035511405
-0.015557947 -0.023118254 -0.00035738241
-0.015068566 -0.023112925 -0.00035088859
-0.014514741 -0.02308099 -0.00034968625
-0.014031367 -0.023061441 -0.00040855008
-0.01353965 -0.023126032 -0.00048112468
-0.01325631 -0.023098722 -0.00025868785
-0.012699291 -0.023091184 -0.00016031589
-0.012014102 -0.02308356 -0.00019276349
-0.01153158 -0.023078009 -0.0002362807
-0.011046149 -0.023149638 -4.3616747e-05
-0.010655103 -0.023188014 -0.00035810104
-0.010039512 -0.023050398 -0.00024712749
-0.0097646425 -0.023265351 -0.00023722611
-0.0092490027 -0.023063175 -0.00035683659
-0.0086921817 -0.023089254 -0.00019267328
-0.0080291908 -0.023093842 -0.00022927301
-0.0075476253 -0.023088904 -0.00023327662
-0.0070327539 -0.023063809 -0.00028783473
-0.0065568984 -0.023091692 -0.00025167601
-0.0060220817 -0.023084678 -0.00027605111
-0.0055371574 -0.023057606 -5.2087329e-05
-0.0050707883 -0.023100199 -5.9011509e-05
-0.0045598443 -0.023068748 -4.5082576e-05
-0.0040354799 -0.023081075 -0.00025740039
-0.0035413073 -0.023172267 -0.00030792467
-0.0026725512 -0.023181677 -6.9453839e-05
-0.0021992433 -0.023187606 -0.00033394815
-0.0016473513 -0.02327073 -0.00026492903
-0.0011854783 -0.023322752 -8.361732e-05
-0.00069050718 -0.023308849 -0.00033473581
-0.00024779199 -0.023066781 -5.3566127e-05
0.0002205561 -0.02325562 -9.632545e-05
0.00075417547 -0.02323507 -8.6787812e-05
0.0014607836 -0.02301966 -0.00024539485
0.0017202841 -0.023220245 -0.00020900421
0.0024449574 -0.023013001 -9.6616342e-05
0.0029184378 -0.023250248 -5.8565518e-05
0.0034445312 -0.023031255 -2.8065464e-05
0.0039845086 -0.023068918 -1.7058002e-05
0.0044484749 -0.023036407 -6.9654576e-05
0.0049066497 -0.023063077 -3.3955643e-05
0.0054196483 -0.02321557 -6.9253198e-05
0.0059431852 -0.023139814 -0.00022731116
0.0064655547 -0.023168867 -0.00022459852
0.006991257 -0.023033902 -0.00012227069
0.0072292308 -0.023056583 -0.00024651911
0.0079649435 -0.023316002 -0.00036241827
0.0084362775 -0.023009509 -0.00041918163
0.0088739758 -0.023280704 -0.00024309175
0.0094640031 -0.023168927 -0.00017399255
0.0099748271 -0.023206899 -0.00018641546
0.010426275 -0.023056168 -0.00047663535
0.010839689 -0.023280108 -0.00020899494
0.011373405 -0.023218589 -0.00027093734
0.011745307 -0.023237919 -0.00044495467
0.012343322 -0.023240944 -0.00031136
0.012808912 -0.023302481 -0.00025661764
0.01347281 -0.023491528 -0.00026093092
0.013969134 -0.023252524 -0.00010838269
0.014442647 -0.023490094 -0.00027523952
0.014979649 -0.02347968 -0.00027385866
0.015446758 -0.02325188 -8.8516303e-05
0.016430847 -0.02347083 -0.00042160077
0.016995683 -0.023482971 -0.00017115957
0.017465819 -0.023010332 -0.00011599483
0.017763514 -0.023154451 -0.00043618894
0.018531576 -0.023481848 -0.00044093229
0.020481961 -0.02349836 -0.00015749631
0.02073916 -0.023327403 -0.00046039218
0.021482995 -0.023482615 -0.00020273071
0.021981951 -0.023479853 -0.00023076579
0.022464287 -0.023490014 -0.00020752556
0.023328736 -0.023038723 -0.0001961157
-0.023595914 -0.022669388 -3.0012568e-05
-0.023215864 -0.022676114 -0.00029410364
-0.022579646 -0.022994889 -0.00028692151
-0.022260787 -0.02263708 -0.00032467576
-0.021525467 -0.022672916 -0.00034454057
-0.02105012 -0.022612242 -0.00031375489
-0.020536974 -0.022599222 -0.00034803792
-0.019755095 -0.022659302 -0.0003198575
-0.019004792 -0.022648467 -0.00030587753
-0.018514978 -0.02262133 -0.00034639909
-0.018047012 -0.022602201 -0.00036666275
-0.017531976 -0.022662837 -0.00032087706
-0.017051764 -0.022639148 -0.000321623
-0.016542206 -0.022642136 -0.00036933628
-0.016067125 -0.022675226 -0.0003555743
-0.015568805 -0.022610681 -0.00038966077
-0.014765246 -0.022616338 -0.00042688104
-0.014039831 -0.022615964 -0.00046475837
-0.013540084 -0.022609385 -0.00025683621
-0.013042104 -0.022631077 -0.00045762013
-0.012535504 -0.022634495 -0.00048175966
-0.012048159 -0.022575365 -2.4370383e-06
-0.011685953 -0.022602476 -0.00030881952
-0.011030824 -0.022633022 -0.00027996022
-0.010564301 -0.022604337 -0.00027010983
-0.010030841 -0.022601392 -0.0002436059
-0.009565467 -0.02258369 -0.00024784368
-0.0090528317 -0.022576354 -0.00030083177
-0.0085551944 -0.022592101 -0.00029808324
-0.0080162697 -0.022608282 -0.00014453084
-0.0075498186 -0.022600211 -0.00027722033
-0.0070343716 -0.022594202 -6.725479e-05
-0.0065424661 -0.022585362 -0.00027777438
-0.0060507483 -0.022622215 -6.359606e-05
-0.0055465843 -0.022620562 -2.8938986e-05
-0.0050289952 -0.022597546 -2.7374917e-05
-0.0045744833 -0.022616187 -1.2735822e-05
-0.0040275129 -0.022568943 -8.1552251e-05
-0.0035427655 -0.022551408 -8.518812e-05
-0.0030293318 -0.022536464 -8.5238644e-05
-0.0025547387 -0.022562584 -0.00011046272
-0.0020160794 -0.022550117 -5.7739329e-05
-0.0015419329 -0.022554671 -9.950676e-05
-0.0010267748 -0.022504181 -1.6013633e-05
-0.00051117514 -0.022584468 -4.2022417e-05
-5.20701e-05 -0.022534018 -4.6047244e-06
0.00047273852 -0.022566933 -0.00025675949
0.00096999039 -0.022553708 -0.00027801085
0.0014778952 -0.022579649 -6.0170089e-05
0.0020094039 -0.022558345 -8.6544795e-05
0.0027448831 -0.022569273 -9.0102447e-05
0.0034745005 -0.022553323 -3.2429947e-05
0.0039916681 -0.022586038 -7.1260074e-05
0.0047526555 -0.022562016 -7.1424933e-05
0.0054647545 -0.022553192 -0.00026433202
0.0059416741 -0.022578066 -7.7598495e-05
0.0064379615 -0.022568991 -5.7750614e-05
0.0069580283 -0.022546126 -9.4037736e-05
0.0074597779 -0.022765391 -0.00027235755
0.0079653468 -0.022982279 -8.3681982e-05
0.0082943896 -0.022680908 -0.00023203176
0.0089547439 -0.022572873 -0.00013571218
0.0093296608 -0.022554219 -0.00030558149
0.0099766375 -0.022531429 -0.00025972706
0.010462495 -0.022677593 -0.0002299047
0.010981917 -0.022548122 -6.7076297e-05
0.011259782 -0.022766963 -0.00025140142
0.011972184 -0.022745062 -9.7503245e-05
0.012451638 -0.022516418 -0.00028705984
0.012963383 -0.022532474 -0.0001022314
0.013466594 -0.022816474 -0.00025489344
0.013954151 -0.022933025 -0.00044352288
0.014250083 -0.022768948 -0.00028495878
0.014833812 -0.022836572 -9.1542082e-05
0.015494914 -0.022547048 -0.00027449106
0.015965011 -0.02275189 -0.0001185936
0.016746234 -0.022993911 -0.00013044878
0.017250482 -0.022740567 -0.00028815417
0.017951267 -0.022825018 -0.00035923815
0.018457608 -0.022837529 -0.00025120188
0.018968036 -0.022515045 -0.00011537329
0.019240052 -0.022981623 -0.00015199336
0.019985298 -0.022812249 -0.00026541858
0.020467231 -0.022954617 -0.00030669919
0.020961396 -0.022940964 -0.00013507681
0.021483155 -0.022993067 -0.00011349795
0.021985948 -0.022512257 -0.00013180904
0.022239693 -0.022975877 -0.00014512532
0.022960804 -0.022733882 -0.00018343562
-0.023675436 -0.022082701 -5.1280251e-05
-0.023373792 -0.022088306 -0.00018948782
-0.022737671 -0.02211383 -0.00030027743
-0.022032229 -0.022094781 -0.00031555607
-0.021527264 -0.022144921 -0.00029944826
-0.021027585 -0.022130216 -0.00033780828
-0.0205076 -0.022145594 -0.00032974035
-0.020038391 -0.022111939 -0.00034983596
-0.019562323 -0.022080751 -0.00035364297
-0.019023916 -0.022118032 -0.00031826348
-0.018513935 -0.022111949 -0.00033978728
-0.018051485 -0.022100411 -0.00033850595
-0.017570032 -0.022078261 -0.00034389907
-0.017054129 -0.022110082 -0.00037968525
-0.016555579 -0.022062352 -0.00040274445
-0.016017521 -0.022075832 -0.00043235521
-0.015530115 -0.022125686 -0.00043037318
-0.01504456 -0.022100557 -0.00046025467
-0.014548205 -0.022078414 -0.0002381994
-0.014027043 -0.022106323 -0.00022448305
-0.013565805 -0.022111431 -0.00025767653
-0.013054221 -0.022083726 -0.00023006732
-0.01254495 -0.022113096 -0.00022312088
-0.012075312 -0.022112109 -0.00025354623
-0.011569719 -0.022114158 -0.00024840687
-0.01105103 -0.022092018 -0.00026208034
-0.010567671 -0.022108071 -0.00027040814
-0.01002975 -0.022059787 -0.00024942806
-0.0095478185 -0.022087753 -0.00024239882
-0.0090278098 -0.022104705 -0.00029300945
-0.0085515939 -0.022089448 -0.00029687694
-0.008027616 -0.022059122 -0.00048789152
-0.0079849986 -0.022146216 -1.1707365e-05
-0.0070686215 -0.022097848 -6.7550078e-05
-0.0065530781 -0.022109674 -5.3943804e-05
-0.0060296971 -0.022063486 -0.00027914625
-0.0055638906 -0.022081291 -3.5326375e-05
-0.005035962 -0.022045745 -8.8997695e-05
-0.004559576 -0.022035252 -3.122061e-05
-0.00374708 -0.022053447 -7.3221316e-05
-0.0030252289 -0.022106497 -0.0004941948
-0.0029982529 -0.02204906 -8.0654485e-05
-0.0022518435 -0.022070825 -6.9703237e-05
-0.0015221982 -0.022083767 -5.2712006e-05
-0.0010379923 -0.022047017 -3.5367375e-05
-0.0005422089 -0.022097277 -4.6347513e-06
-7.807868e-05 -0.022063062 -5.4107122e-06
0.00040638709 -0.022076253 -2.9654275e-05
0.00096373004 -0.022066899 -9.9451514e-05
0.0014622053 -0.02205492 -8.2061451e-05
0.002246541 -0.022044087 -0.0001184929
0.0029613324 -0.022035005 -0.00013588381
0.0034530964 -0.022064019 -0.00010626486
0.0039879177 -0.022063244 -0.00010485057
0.0044851899 -0.022008492 -0.00010132446
0.0049694697 -0.022051152 -7.8832192e-05
0.0054641659 -0.022044275 -4.9561553e-05
0.0059828525 -0.022052636 -7.9912803e-05
0.0069559589 -0.022020733 -4.5919733e-05
0.0074695055 -0.022056403 -4.6422065e-06
0.0079545127 -0.022257011 -7.257791e-05
0.0089444108 -0.022022162 -0.00026418123
0.0094613228 -0.022030171 -0.00028720647
0.0099618658 -0.02206973 -0.00011986442
0.010455151 -0.022015424 -6.4605731e-05
0.010990996 -0.022055091 -7.5277814e-05
0.011482635 -0.022006704 -6.9079862e-05
0.011988682 -0.022037975 -8.1920763e-05
0.012438675 -0.022026803 -0.00025468221
0.013046026 -0.022041809 -0.000489828
0.013966757 -0.022005918 -0.00017661654
0.014282991 -0.022278462 -0.0003204126
0.015457413 -0.022014394 -7.5946504e-05
0.015942492 -0.022007834 -7.1470102e-05
0.016438264 -0.022261947 -9.4923482e-05
0.016990516 -0.022001816 -8.1805454e-05
0.017014848 -0.022476001 -0.00011602312
0.018224804 -0.02224559 -0.00010080231
0.018988758 -0.022009205 -0.00011397805
0.019484848 -0.022485618 -9.1876369e-05
0.020493548 -0.022452174 -0.00014505407
0.021243962 -0.02248342 -0.00012593769
0.022444896 -0.022482295 -0.0001026385
0.023413271 -0.022405781 -0.00021540141
-0.023674391 -0.021619875 -7.6484517e-05
-0.023392649 -0.021618195 -0.00016640732
-0.022752667 -0.021651229 -0.00028578873
-0.022034008 -0.021645794 -0.00034602825
-0.021512223 -0.021644134 -0.00032410154
-0.021008275 -0.021639483 -0.0003570444
-0.020563874 -0.021633832 -0.00033620815
-0.020016646 -0.02159561 -0.00031070109
-0.019530417 -0.021641351 -0.0003488881
-0.019060036 -0.021625653 -0.00034573895
-0.018551825 -0.021611284 -0.00033364946
-0.01807539 -0.021592693 -0.00033750141
-0.017566135 -0.021604827 -0.00032389932
-0.017028037 -0.021626042 -0.00038337766
-0.016545612 -0.021592796 -0.00044692453
-0.016040793 -0.021618994 -0.00045320048
-0.015559969 -0.021633344 -0.00043442001
-0.01476129 -0.021628667 -0.00044903567
-0.014039069 -0.021606665 -0.00026172181
-0.013535982 -0.021625873 -0.00025437318
-0.013029625 -0.021584323 -0.00025416887
-0.012568503 -0.021601204 -0.0002359059
-0.011691235 -0.021615395 -0.00032796556
-0.010686918 -0.021611134 -0.00016808644
-0.010010399 -0.021601977 -0.00024773739
-0.0095453067 -0.021601539 -0.00045685738
-0.0090344455 -0.021573644 -0.00047239527
-0.0085488074 -0.021611432 -0.00048642239
-0.0075696735 -0.021620594 -8.8291126e-06
-0.0071918652 -0.021593755 -0.00032806527
-0.0065602311 -0.021622855 -6.248054e-05
-0.0060514282 -0.021610653 -8.4566127e-05
-0.0055600135 -0.021580998 -8.0434518e-05
-0.0050359033 -0.021529272 -6.2600287e-05
-0.0045677847 -0.021602346 -9.6583943e-05
-0.0037489845 -0.021551244 -9.9913152e-05
-0.0029850907 -0.021545034 -8.0130514e-05
-0.0022476646 -0.021574963 -8.2645653e-05
-0.001517893 -0.02155719 -4.6821377e-05
-0.0010205857 -0.021560576 -6.2444378e-05
-0.00053085515 -0.021591177 -6.7088586e-05
-2.4418841e-05 -0.021571169 -3.7189548e-05
0.00043239584 -0.021570524 -6.6393448e-05
0.0012449517 -0.02157028 -9.6204414e-05
0.0019737664 -0.021562012 -0.00012817956
0.0024812566 -0.021545963 -0.00013835006
0.0029912225 -0.021531841 -0.00013065756
0.003469062 -0.021593418 -0.00013635401
0.0042417664 -0.021559637 -4.1085608e-05
0.0049754437 -0.021560848 -3.9711391e-05
0.0054757521 -0.021583201 -2.2749358e-05
0.0064548953 -0.021993326 -3.3352582e-05
0.0067530796 -0.021566542 -7.873532e-05
0.0074671963 -0.021568893 -3.3559481e-05
0.0084451884 -0.021747019 -4.8497925e-05
0.0089780493 -0.021537781 -4.1548366e-05
0.0094521176 -0.021538209 -5.1805342e-05
0.009971845 -0.02166233 -0.00035060974
0.010448821 -0.02157506 -0.00016548982
0.010955724 -0.021537751 -0.00028519757
0.011432519 -0.021537701 -4.710193e-05
0.01196955 -0.021558227 -2.6045134e-05
0.012438871 -0.021523556 -0.00011338195
0.012753956 -0.021751791 -0.00028873776
0.013452096 -0.021748196 -0.00010444754
0.013955018 -0.021515604 -0.00013518316
0.014475657 -0.021992328 -0.00049284555
0.014944477 -0.021989429 -0.00029286015
0.015233622 -0.021510448 -9.8581164e-05
0.015985647 -0.021525798 -0.00011367211
0.016455516 -0.02155008 -0.00016256055
0.017312055 -0.021687074 -0.00012472701
0.01796528 -0.021963948 -8.3697261e-05
0.018472383 -0.021527911 -0.00011585688
0.018928031 -0.021510363 -0.00012521097
0.019458959 -0.021741835 -9.8540069e-05
0.020309968 -0.021831632 -0.00010622747
0.020980578 -0.021974482 -0.00014134374
0.021473188 -0.02174367 -0.00012434239
0.02195663 -0.021964721 -0.00010618439
0.022448188 -0.021974782 -0.00010397832
0.022952413 -0.021995863 -0.00017213577
0.023450017 -0.021921819 -0.00023574557
0.023862343 -0.021950111 -0.00034948788
-0.023170054 -0.02115114 -0.00019718595
-0.02250829 -0.021103308 -0.00027124071
-0.022049708 -0.02112719 -0.00029858283
-0.021527693 -0.021127105 -0.00034682988
-0.021030871 -0.021127176 -0.00039822503
-0.020548768 -0.021102997 -0.0003681893
-0.020004379 -0.021118011 -0.00035539793
-0.019518111 -0.021098092 -0.00036030554
-0.01905695 -0.02108332 -0.00037997554
-0.01855327 -0.02109069 -0.0003601939
-0.018007658 -0.021077573 -0.00036059489
-0.017521404 -0.021090649 -0.00037850795
-0.017031401 -0.021105643 -0.00041306956
-0.016535774 -0.021111429 -0.00043605943
-0.016007937 -0.021126717 -0.0004265295
-0.015523436 -0.021113053 -0.00040136516
-0.015018905 -0.021102842 -0.00047459698
-0.01450984 -0.021117697 -0.0004655362
-0.014055249 -0.021112045 -0.00046883273
-0.013552353 -0.021095101 -0.00048310176
-0.013035089 -0.021084622 -0.00046310225
-0.012530003 -0.021087125 -0.00024542143
-0.012046545 -0.021111162 -0.00045186409
-0.011563456 -0.02109414 -0.00025421305
-0.011045632 -0.02110395 -0.000267294
-0.010552 -0.02107333 -0.00025069155
-0.009537397 -0.021098798 -0.0002462634
-0.0090410113 -0.02112015 -1.7249084e-05
-0.0087642297 -0.021105587 -0.00048294122
-0.0080298558 -0.021060869 -0.00025565422
-0.007557997 -0.021077998 -3.9575534e-05
-0.0070546968 -0.021076566 -7.0821086e-05
-0.0065583689 -0.021057282 -0.00010669249
-0.0060146805 -0.021016102 -0.00012848328
-0.0055483831 -0.021053605 -0.00029955548
-0.004769309 -0.021032695 -8.5018459e-05
-0.0037607383 -0.021062361 -8.0622376e-05
-0.0030212193 -0.021070717 -7.6945056e-05
-0.0025345921 -0.021057008 -0.00012451038
-0.0020241304 -0.021125678 -9.5195996e-05
-0.0015738609 -0.021057755 -0.00010367735
-0.0010849214 -0.021066904 -0.00010158718
-0.00054159516 -0.021068342 -6.8517198e-05
-4.7456619e-05 -0.021031011 -7.6802178e-05
0.00043805281 -0.021080118 -6.5132161e-05
0.00097203831 -0.02101157 -8.5748215e-05
0.0014268013 -0.021072902 -8.2888932e-05
0.0019583334 -0.021127081 -0.00011375407
0.002469891 -0.021044744 -0.00012697917
0.0029941404 -0.021049885 -0.00014978056
0.0034735277 -0.021058057 -9.1317845e-05
0.0040091253 -0.021045864 -4.2355154e-05
0.0047342926 -0.02106164 -3.4319157e-05
0.0054399921 -0.021014424 -6.2028121e-06
0.0059957523 -0.021037079 -2.4756242e-05
0.0064658662 -0.021039153 -2.8309674e-05
0.0074576549 -0.021038709 -0.00026129695
0.0079710009 -0.021188417 -0.00018851137
0.0084542669 -0.021002466 -1.9789819e-05
0.0089498339 -0.021007037 -1.4380086e-05
0.0092336629 -0.02104165 -0.00028196315
0.0098099178 -0.021027587 -0.00037903929
0.010432667 -0.021244958 -0.00047393129
0.010969677 -0.021012409 -0.00049842609
0.011244494 -0.021047242 -7.0656839e-05
0.011989363 -0.021253828 -0.00026642357
0.012442227 -0.021004975 -0.00046582791
0.012957712 -0.021253072 -9.4202202e-05
0.013985405 -0.021011559 -0.0001546088
0.014441679 -0.021255355 -0.00016229789
0.015956135 -0.021006722 -0.00014873093
0.017967798 -0.021249559 -0.00011466342
0.019816473 -0.021168783 -8.884148e-05
0.020980088 -0.021475818 -0.0001071851
0.021983404 -0.021476468 -0.00016277516
0.022464015 -0.02148963 -0.00012641854
0.022993194 -0.021476183 -0.00013849966
0.023801146 -0.021451989 -0.00029419945
-0.023516119 -0.020625576 -0.00047817745
-0.023001576 -0.020685837 -0.00023869227
-0.02266868 -0.020651592 -0.00013050107
-0.022061002 -0.020605259 -0.00033924344
-0.021578513 -0.020646101 -0.00030170416
-0.021011235 -0.020633025 -0.00035716838
-0.020539813 -0.02062818 -0.00040127418
-0.020025732 -0.020638794 -0.00040662801
-0.019547485 -0.020630639 -0.0004259292
-0.019035876 -0.020633588 -0.00042061321
-0.018561041 -0.020623466 -0.00037238392
-0.018048422 -0.020647492 -0.00038950553
-0.017576804 -0.020588761 -0.00040522229
-0.017039524 -0.020588528 -0.0004229286
-0.016553048 -0.020635879 -0.00043223228
-0.016017018 -0.020647101 -0.00040878542
-0.015513611 -0.020609753 -0.00042124162
-0.015036427 -0.020609714 -0.00042229542
-0.014552512 -0.020633692 -0.0004734192
-0.01401161 -0.020604756 -0.00047465734
-0.013536251 -0.020637805 -0.00045084785
-0.013498886 -0.020576673 -3.651774e-06
-0.012575708 -0.0205859 -0.00044202583
-0.012026238 -0.020619506 -0.00044219347
-0.011529862 -0.020582 -0.00021979673
-0.01101779 -0.020604663 -0.00024542955
-0.01006205 -0.020588866 -0.00047996268
-0.0095476303 -0.020617055 -0.00025750761
-0.0090353042 -0.020607769 -0.00022498315
-0.0085392259 -0.020628328 -0.00025557738
-0.0080461726 -0.020599512 -0.00025151731
-0.007533689 -0.020584783 -3.0176656e-05
-0.0070440504 -0.020616345 -2.2528693e-06
-0.0065681199 -0.020575749 -0.00025724864
-0.0060585821 -0.020609882 -6.1804312e-05
-0.0055773063 -0.020535678 -8.9795154e-05
-0.0050033187 -0.020587649 -0.00010075602
-0.0042540501 -0.02056258 -7.6450335e-05
-0.0035085042 -0.020517038 -8.5089647e-05
-0.0030230342 -0.020605944 -8.4722386e-05
-0.002544736 -0.020519219 -6.8005284e-05
-0.0020372849 -0.020599527 -6.8791698e-05
-0.0015076727 -0.020579649 -7.6799857e-05
-0.0010506329 -0.020577153 -7.3673378e-05
-0.00057933544 -0.020585421 -6.836791e-05
-2.7393107e-05 -0.020535462 -6.2017411e-05
0.00046228594 -0.020590561 -7.770909e-05
0.0009394082 -0.020553323 -7.8433557e-05
0.0014685105 -0.020545987 -3.188831e-05
0.0019046816 -0.020594316 -7.7964898e-05
0.0024457157 -0.020558177 -0.0001587283
