# .PCD v0.7 - Point Cloud Data file format
VERSION 0.7
FIELDS x y z
SIZE 4 4 4
TYPE F F F
COUNT 1 1 1
WIDTH 1402
HEIGHT 1
VIEWPOINT 0 0 0 1 0 0 0
POINTS 1402
DATA ascii
0.13072059 0.11776702 0.026217263
0.13124405 0.11772177 0.026216727
0.13172148 0.11772923 0.026189303
0.13214269 0.11779147 0.026174346
0.078308813 0.11829792 0.026069336
0.078777067 0.11822913 0.026213944
0.079248786 0.11820409 0.026190659
0.07977099 0.1182797 0.026194254
0.080214061 0.11827663 0.026161853
0.080696858 0.11823618 0.026096305
0.08126767 0.11829168 0.026083287
0.081776179 0.11825152 0.026113946
0.082209051 0.11828553 0.026126496
0.082720831 0.11824341 0.026138708
0.083239682 0.11823338 0.026137393
0.0837285 0.11826038 0.026163397
0.08427199 0.11828012 0.026160592
0.084726959 0.11825138 0.026151625
0.08530084 0.11822259 0.026052875
0.085752875 0.11825552 0.02605987
0.086263925 0.11826023 0.02608829
0.086754613 0.11827438 0.026133519
0.08727669 0.11821654 0.026149588
0.087756805 0.11822206 0.026124284
0.088270918 0.11823191 0.026106095
0.088828206 0.11825294 0.026107339
0.089249834 0.11823364 0.02611913
0.089758277 0.11816708 0.02612463
0.090256415 0.11822386 0.026129764
0.090767987 0.11825364 0.026147548
0.091245957 0.11825273 0.026157873
0.09172105 0.11827576 0.026172493
0.09223187 0.11825123 0.02614519
0.092716575 0.11824658 0.026167205
0.093245931 0.11823418 0.02617985
0.093714207 0.11823472 0.026152484
0.094261386 0.11823576 0.026140517
0.094743557 0.11825736 0.026146417
0.095294289 0.11820579 0.026160682
0.09576264 0.11827432 0.026164414
0.096276365 0.11823583 0.026164452
0.096783943 0.11822202 0.026183855
0.097260348 0.11825351 0.026152747
0.097702928 0.11825849 0.026160242
0.098262563 0.11825106 0.026172312
0.098724462 0.11825058 0.026138691
0.099300556 0.11821359 0.026121035
0.099810772 0.11823212 0.026139535
0.10029373 0.11826241 0.026156208
0.10079348 0.1182545 0.026160052
0.10127286 0.11823495 0.0261482
0.10175243 0.11825215 0.026180636
0.10225281 0.11824808 0.026151596
0.10274287 0.11826643 0.026162518
0.10326 0.11823814 0.026151059
0.10371216 0.11828482 0.026137481
0.10431301 0.11823412 0.026099894
0.1047575 0.11830078 0.026123567
0.10528313 0.11817427 0.026105508
0.10581762 0.11827319 0.026112428
0.10622097 0.11822759 0.02610424
0.10674745 0.11826265 0.026106264
0.10728192 0.11822161 0.026154581
0.1077853 0.11830323 0.026175614
0.1082689 0.1182147 0.026128823
0.10874738 0.11821866 0.026161605
0.10922941 0.11824813 0.026155889
0.10974278 0.11822562 0.026137644
0.11026935 0.11825319 0.026144035
0.11075853 0.11823355 0.026154587
0.11132562 0.11822628 0.026171453
0.11175358 0.11830775 0.026131934
0.11225712 0.11826641 0.026166368
0.11276419 0.11823314 0.026173331
0.11325938 0.11822817 0.026168352
0.11378355 0.1182549 0.026159089
0.11420858 0.11827829 0.02617486
0.11473215 0.11823188 0.026171872
0.11522476 0.11826867 0.026175672
0.11576218 0.11819715 0.026175873
0.11623375 0.11826433 0.026169531
0.11675774 0.11832125 0.026168402
0.11727718 0.11822602 0.026185118
0.11778814 0.11827651 0.026203735
0.11826072 0.11821563 0.026191181
0.11876824 0.11828179 0.026180422
0.11927927 0.11824023 0.026191521
0.11973666 0.11823457 0.026172383
0.12026863 0.11824901 0.026180444
0.12071937 0.11828218 0.026175423
0.12125497 0.11822749 0.026247302
0.1217344 0.11824932 0.026251713
0.12225173 0.11825476 0.026232302
0.12271072 0.11826024 0.026251214
0.12328316 0.11824526 0.026185103
0.1237846 0.11822329 0.026192401
0.12427394 0.11825575 0.026184754
0.12476967 0.11825135 0.026213722
0.12522022 0.11829533 0.026210325
0.12576617 0.11822674 0.026193745
0.12626743 0.11823753 0.026199002
0.12675691 0.11824134 0.02628373
0.12726474 0.11825254 0.026284534
0.12776546 0.1182811 0.026269186
0.12829022 0.11822595 0.026276339
0.12874201 0.11830497 0.026284238
0.12922579 0.11825056 0.026287485
0.12972766 0.11825878 0.026250659
0.1302454 0.11825299 0.026295172
0.13072208 0.11825844 0.026227325
0.13127834 0.1182348 0.026195629
0.1317759 0.11826065 0.026205802
0.13222073 0.11828798 0.026178868
0.077712968 0.11882493 0.026016105
0.078235701 0.11881045 0.026069218
0.07875438 0.11873658 0.026157569
0.07925611 0.11871618 0.026166162
0.07969436 0.11875455 0.026166536
0.080226339 0.1187508 0.026156837
0.08071772 0.11877336 0.026142128
0.081233241 0.11883517 0.026097203
0.081733353 0.11873349 0.026078358
0.082275711 0.11875474 0.026130421
0.082723342 0.11876275 0.026126811
0.083277874 0.11869174 0.026120849
0.083766855 0.11873112 0.026135709
0.084249415 0.11877891 0.026137471
0.084760115 0.11870854 0.026160782
0.085202031 0.1187693 0.026109014
0.085757084 0.11873179 0.026091587
0.086208336 0.11867441 0.026139686
0.086717702 0.11872122 0.026166134
0.087261744 0.11871275 0.026115002
0.087710999 0.11877469 0.026081132
0.088271163 0.11872717 0.02606524
0.088744722 0.1188172 0.026056999
0.089227803 0.11869934 0.026066853
0.089730784 0.11872691 0.026064962
0.090229608 0.1187113 0.026069311
0.090727225 0.11878045 0.026121426
0.091267973 0.1187211 0.026128914
0.091759712 0.11874213 0.026148841
0.092272915 0.11876701 0.026195405
0.092749782 0.11872268 0.026174666
0.093273886 0.11872008 0.026158217
0.093738645 0.11875015 0.026136866
0.094275974 0.11877054 0.02611327
0.094776966 0.11874207 0.026116977
0.095231704 0.11871009 0.026116932
0.095729128 0.11874728 0.026144732
0.096278295 0.11871672 0.026141498
0.096748494 0.11874898 0.026144629
0.09724851 0.11873787 0.026168298
0.09780407 0.11875472 0.026155068
0.098268539 0.11874742 0.026177824
0.098771967 0.11872625 0.026172074
0.099275693 0.11873792 0.026181038
0.099757634 0.11873005 0.026136372
0.10024393 0.11875021 0.026117183
0.10073067 0.11870112 0.026101798
0.10125703 0.11873204 0.026173415
0.10172916 0.11872327 0.026134564
0.10228917 0.11872775 0.026156755
0.10276745 0.1187661 0.026148023
0.10321788 0.11873049 0.026173394
0.10374089 0.11877637 0.0261619
0.10426622 0.11872856 0.02615406
0.10477201 0.11879005 0.026148999
0.10523915 0.11873519 0.026139811
0.10570156 0.11873654 0.026102645
0.10626864 0.11873098 0.026081169
0.10677719 0.11874094 0.026094723
0.10727294 0.11871564 0.026170723
0.10772624 0.11878512 0.026164884
0.10824564 0.1187477 0.026169879
0.10872962 0.1187145 0.026164364
0.10923991 0.11876661 0.026148919
0.1097323 0.11874446 0.026160274
0.11026227 0.11877024 0.026149495
0.11076784 0.1187002 0.02616486
0.11125657 0.1187156 0.026180128
0.11175139 0.11875875 0.026161371
0.11227611 0.11874495 0.026162667
0.11273438 0.11873873 0.026167136
0.11324957 0.11871804 0.026181996
0.11371671 0.11873635 0.026174456
0.11428789 0.11873252 0.026165057
0.11473754 0.11871966 0.026164047
0.11526307 0.11870548 0.026179357
0.11572079 0.11873646 0.026159104
0.11623202 0.11880121 0.026195269
0.11670569 0.11878272 0.026194699
0.1172683 0.11874326 0.026220692
0.11776361 0.11875779 0.026249917
0.11824723 0.1187496 0.026239496
0.11871136 0.11875767 0.026218677
0.11921282 0.1187123 0.026164379
0.11972786 0.11873192 0.026196437
0.12026203 0.11876138 0.026170937
0.12079523 0.11874015 0.026186362
0.12127217 0.11872447 0.02623317
0.12176058 0.11873516 0.026243262
0.12224708 0.1187873 0.026271155
0.12272806 0.11869473 0.026187334
0.12326579 0.11870251 0.026162384
0.12374917 0.11874469 0.026182123
0.12428012 0.11875435 0.026175959
0.12475559 0.11876079 0.026193084
0.12529694 0.1187333 0.026212284
0.12574121 0.1187432 0.026234908
0.12624115 0.11875556 0.02625058
0.12675975 0.11872518 0.026245514
0.12724955 0.11872729 0.026265059
0.12771446 0.11876297 0.026261041
0.12825999 0.11873451 0.026255619
0.12876007 0.11874406 0.026250167
0.12928265 0.11872915 0.026260506
0.12976474 0.11873542 0.02628356
0.13028052 0.11872162 0.026254129
0.1307483 0.11873966 0.026282901
0.13122942 0.11876842 0.026230216
0.131717 0.11873762 0.02623787
0.1322159 0.11877016 0.02622905
0.13253403 0.11887176 0.026129011
0.077956989 0.11927517 0.026019333
0.078251936 0.11924501 0.026048874
0.078744292 0.11923897 0.026110653
0.079229183 0.1192368 0.026169838
0.079731651 0.11927438 0.026191842
0.08024475 0.11924126 0.026149265
0.080717847 0.11925764 0.026122991
0.081234828 0.11926803 0.026135815
0.081760749 0.11927588 0.026076267
0.082250431 0.11928964 0.026113288
0.082706757 0.11930459 0.026155366
0.083271623 0.11924016 0.026106829
0.08381632 0.11925721 0.026083563
0.084185489 0.1192675 0.026108142
0.08468204 0.11926348 0.026094388
0.085276999 0.11927777 0.026132014
0.085737363 0.11926031 0.026150046
0.086186275 0.11922758 0.02613234
0.086762734 0.11923778 0.026099266
0.087226503 0.11926199 0.026086953
0.087699294 0.1192436 0.026051683
0.088272549 0.11923366 0.026060665
0.088755727 0.11931694 0.026052088
0.089239776 0.1192681 0.026047939
0.089739256 0.11926502 0.026050625
0.090276308 0.11927433 0.026065476
0.090781845 0.11925314 0.02612545
0.091267355 0.11927485 0.02612726
0.091775388 0.11923902 0.026113216
0.092258781 0.11919653 0.026127668
0.092740551 0.11919476 0.026159948
0.093225323 0.11923547 0.026162257
0.093753882 0.11925857 0.02615946
0.094269015 0.11931237 0.026141575
0.094751231 0.11928263 0.026112931
0.095244586 0.11930615 0.026074065
0.095742688 0.1191982 0.0261146
0.096272618 0.11928868 0.026111338
0.096760064 0.11927934 0.026157666
0.097292267 0.11928229 0.026149791
0.097735994 0.1192618 0.026158774
0.098285407 0.11921369 0.026152153
0.098772325 0.11923324 0.026137378
0.09929733 0.11924301 0.026085125
0.099802248 0.11919364 0.026071869
0.10029629 0.11927421 0.026087977
0.10077859 0.11923773 0.026142364
0.10124607 0.11923812 0.026138797
0.1017637 0.11926284 0.026105532
0.10225876 0.11923563 0.026091965
0.10272798 0.11925657 0.026165457
0.10323472 0.11923885 0.02618419
0.10372866 0.11926541 0.026174815
0.10424419 0.11925139 0.026178997
0.10474523 0.11928252 0.026137369
0.10526252 0.11922201 0.026147144
0.10571391 0.11929283 0.026159041
0.10624909 0.11930238 0.026114307
0.10677502 0.11922106 0.026133785
0.10727191 0.11927545 0.026170885
0.10771659 0.11922681 0.02616152
0.1082196 0.11925969 0.026164914
0.10872769 0.11922398 0.026164556
0.10921568 0.11923257 0.026181454
0.10973322 0.11924728 0.026178498
0.11024424 0.11926473 0.0261699
0.11071777 0.11927234 0.02616331
0.11125213 0.11926145 0.02617622
0.1117209 0.11923806 0.026186435
0.11222672 0.11925625 0.026186008
0.11273273 0.11921751 0.02616334
0.11325736 0.11921308 0.026185345
0.11370802 0.11925765 0.026157014
0.11424075 0.11921085 0.026146393
0.11475201 0.11922608 0.026153166
0.11523666 0.1192405 0.026153393
0.11571018 0.11927008 0.026159922
0.11622936 0.11926518 0.026174597
0.11671213 0.11925323 0.026179921
0.11728671 0.11924317 0.02620402
0.11773209 0.1192157 0.02625226
0.11823595 0.11923973 0.02627651
0.11874594 0.11929125 0.026243081
0.11927322 0.11924893 0.0261747
0.1197179 0.11928613 0.02617994
0.12025505 0.11926854 0.026177106
0.12074657 0.11924841 0.02619346
0.12124176 0.11928134 0.026207341
0.12172642 0.11925049 0.026234649
0.12227089 0.11927054 0.026162522
0.12275829 0.11929518 0.026183318
0.12328093 0.11926873 0.026154624
0.12375281 0.11926474 0.026174217
0.1242732 0.11928474 0.026168223
0.12476263 0.11927808 0.026173251
0.12524636 0.11921182 0.026251527
0.12572119 0.11930164 0.026254036
0.12626447 0.11926366 0.026247784
0.12675877 0.11923087 0.026277285
0.12726445 0.11921326 0.026163429
0.12772562 0.11924777 0.026290018
0.12825705 0.119262 0.026241833
0.12875624 0.11922944 0.026225341
0.12925713 0.11922251 0.026234495
0.12973413 0.11928634 0.026218347
0.1302343 0.11923961 0.026270665
0.13071342 0.11925761 0.026277415
0.13130406 0.11928446 0.026240533
0.13173525 0.11922037 0.0263166
0.13220449 0.11927953 0.026253682
0.13255329 0.11923313 0.026088107
0.077486508 0.11989485 0.026070604
0.077766404 0.11980979 0.026040792
0.078259252 0.11974829 0.02607364
0.078778826 0.11973047 0.026117159
0.079282202 0.11974685 0.026172206
0.079758033 0.11975758 0.026157364
0.080254272 0.1197125 0.026147114
0.080708168 0.11977163 0.026138104
0.081295252 0.11973485 0.026089452
0.081767432 0.11977571 0.026115283
0.082235865 0.11971976 0.026109286
0.082706839 0.1197468 0.026150279
0.083210044 0.11970457 0.026124721
0.083701149 0.11973238 0.026091367
0.084249154 0.11981435 0.026092768
0.084761269 0.11973358 0.026093533
0.085232124 0.11970869 0.02614196
0.085717998 0.11976687 0.0261756
0.086259127 0.11973723 0.026143856
0.086715557 0.11978711 0.026105519
0.087225437 0.11977828 0.026080417
0.087752707 0.11973394 0.026079698
0.088271953 0.11972997 0.026048301
0.088736311 0.11980603 0.02605024
0.089263707 0.1197684 0.026044974
0.089736469 0.11973584 0.026054764
0.090278834 0.11973956 0.026087279
0.090720877 0.11974095 0.026124571
0.091235586 0.11973079 0.02612178
0.091666915 0.11975535 0.026083354
0.092288233 0.1197607 0.026080847
0.092798062 0.11970201 0.026095202
0.093220279 0.11974956 0.026097259
0.093662232 0.11970476 0.026107265
0.094277024 0.11972896 0.026082132
0.094787806 0.11972315 0.026132973
0.095242389 0.11973112 0.026119085
0.095706485 0.11976446 0.02609943
0.096301384 0.11977118 0.026138108
0.096734256 0.11974446 0.026182989
0.097196989 0.11975821 0.026186306
0.097737126 0.11976423 0.026161233
0.098238535 0.11976533 0.026136052
0.098729044 0.11974557 0.026142988
0.099205695 0.11974748 0.026096728
0.099720687 0.11970097 0.026070373
0.10026264 0.11976777 0.026107579
0.10073583 0.11972226 0.026133122
0.1011859 0.11978071 0.02612095
0.10171168 0.11976133 0.026088769
0.10228368 0.11975381 0.026132718
0.10279573 0.11971312 0.026146056
0.1032728 0.11974923 0.026162231
0.10374707 0.11977255 0.026139593
0.10427887 0.11978415 0.02616455
0.1047711 0.11973806 0.026177373
0.10525095 0.11973789 0.026172217
0.1057365 0.11976253 0.026147956
0.10627382 0.11982324 0.026173716
0.10678571 0.11975487 0.026154829
0.10724594 0.119771 0.026170183
0.10774155 0.11971914 0.026164759
0.10825397 0.11975356 0.026168576
0.10875749 0.11972935 0.026161939
0.10925493 0.11974034 0.026144076
0.10969369 0.11974565 0.026150931
0.11025813 0.11977937 0.02616331
0.11076522 0.11972512 0.026154108
0.11122446 0.11975375 0.026177568
0.11172985 0.11971688 0.026166024
0.11229297 0.11972763 0.026201339
0.11275446 0.11972377 0.026175283
0.1132397 0.1197373 0.026171472
0.11375047 0.11972707 0.026174016
0.11423413 0.11973882 0.026142739
0.1147437 0.11973291 0.026190156
0.11525632 0.11971044 0.026166009
0.11575365 0.11975854 0.026185133
0.11629026 0.11974179 0.026149841
0.11676875 0.11973554 0.026182108
0.11724683 0.11973639 0.026150836
0.11774541 0.11973597 0.02618615
0.11829303 0.1197373 0.026230561
0.11875625 0.11979766 0.026249718
0.11926235 0.11973176 0.026250167
0.11976356 0.11974633 0.026204227
0.12028107 0.11972095 0.026191989
0.12076247 0.11979962 0.026198901
0.12119471 0.11975756 0.026250731
0.12173299 0.11974246 0.026188761
0.12227976 0.11976631 0.026189618
0.12276583 0.11978315 0.026165705
0.12321357 0.11976852 0.02619789
0.12373181 0.11974328 0.026181264
0.12425065 0.11979565 0.026186284
0.12473699 0.11975647 0.026165524
0.12521891 0.11972618 0.026201032
0.12576674 0.11975582 0.026229382
0.12626843 0.1197442 0.026287863
0.1267601 0.11971463 0.026261732
0.12725773 0.11973377 0.026235782
0.12775211 0.11971639 0.026228055
0.12825927 0.11976542 0.026258959
0.12875 0.11971761 0.026201794
0.12927169 0.11974999 0.026194215
0.12978156 0.11972807 0.026272295
0.13027804 0.11974825 0.026285525
0.13078721 0.11972024 0.026264049
0.13121729 0.1197589 0.026276547
0.13173431 0.1197131 0.026313322
0.13224316 0.11973567 0.026204988
0.13274333 0.1197358 0.026140532
0.07746844 0.12016126 0.026182195
0.077752404 0.12031793 0.026216196
0.078216553 0.1203073 0.026179707
0.078730837 0.12031242 0.026130896
0.079268947 0.12025283 0.026174866
0.079747953 0.12031933 0.026151445
0.08021906 0.12024833 0.026138721
0.080711834 0.12029482 0.026109844
0.081252202 0.12028062 0.026130516
0.08178208 0.12034392 0.02613128
0.082189724 0.12020504 0.026070369
0.082709208 0.12023823 0.026131626
0.083253428 0.12030351 0.026128193
0.083721995 0.12028636 0.026113143
0.084236167 0.12029722 0.026121307
0.084733598 0.12024289 0.026150383
0.085242786 0.12024465 0.026155479
0.085757919 0.12023004 0.026187448
0.086285047 0.1202537 0.026170133
0.0867678 0.12021273 0.026149005
0.087214619 0.12025112 0.026130741
0.087742485 0.12031289 0.026123397
0.08817102 0.1202407 0.026105136
0.088671237 0.12028909 0.026112933
0.089224242 0.12023263 0.026081679
0.08973404 0.12029747 0.026052635
0.090247571 0.12029891 0.026057674
0.090722494 0.12022851 0.026068119
0.09124013 0.12029713 0.026068823
0.091743171 0.12022874 0.026073338
0.092317536 0.12026852 0.026065188
0.092817925 0.12026034 0.026068822
0.093254685 0.12022867 0.026080389
0.093781143 0.12023161 0.02608555
0.09432596 0.12021273 0.026100995
0.094804987 0.12030215 0.026122421
0.095222935 0.12030178 0.026144991
0.095733501 0.12025375 0.026127599
0.096263744 0.12027862 0.026174376
0.096748166 0.12025881 0.026196621
0.097222827 0.1202534 0.026177553
0.097706817 0.12021368 0.026154255
0.09828078 0.12026239 0.026148347
0.098787963 0.12026551 0.026093811
0.099200808 0.12029531 0.026077377
0.09972249 0.12028938 0.02609317
0.10026693 0.12029464 0.026141517
0.10073631 0.12024806 0.026124561
0.1011764 0.12019581 0.026099671
0.10173748 0.12027975 0.026060259
0.10225596 0.12022344 0.026077282
0.1027753 0.12022867 0.026161091
0.10320368 0.12023917 0.026172334
0.10371416 0.12029178 0.026165744
0.10425641 0.12019602 0.026175981
0.10473588 0.12024807 0.026156746
0.10520273 0.12024034 0.026152344
0.10568246 0.12028364 0.026175952
0.10622332 0.12027977 0.026177006
0.10674123 0.1202277 0.026174558
0.10723069 0.12022061 0.02617103
0.10770171 0.12027932 0.02616494
0.10824361 0.12025154 0.026154755
0.10874806 0.12026513 0.026145302
0.10927553 0.12022711 0.026143093
0.10979587 0.1202611 0.026114004
0.11026923 0.12024704 0.026136884
0.11077023 0.12025925 0.026143653
0.11126929 0.12025146 0.026158929
0.11176078 0.12027238 0.026170598
0.11230016 0.12027966 0.026190909
0.11274222 0.12022737 0.02618215
0.11324426 0.12028313 0.026162816
0.11369739 0.12024109 0.026183276
0.11421585 0.12023518 0.026195694
0.11472375 0.12022894 0.026171498
0.11526544 0.12027383 0.026202798
0.11575588 0.12025332 0.026196601
0.11625842 0.12020519 0.026165023
0.11675262 0.12023491 0.026195526
0.11726593 0.12028242 0.026181895
0.11775048 0.12027702 0.026183205
0.11824679 0.12027988 0.026185691
0.11872832 0.1202531 0.02625997
0.11925219 0.12026171 0.026209395
0.11974022 0.12023481 0.02617248
0.12027821 0.12028426 0.026257742
0.12077969 0.12023269 0.026262186
0.12126925 0.12025295 0.026193654
0.12176615 0.12029596 0.026197264
0.12228097 0.12026758 0.026182147
0.12276715 0.12022507 0.026157865
0.12326378 0.12023859 0.026192639
0.12371386 0.12026064 0.026184229
0.12425256 0.12026595 0.026242163
0.12474709 0.12024401 0.026210029
0.12523301 0.12026263 0.026185997
0.12569985 0.1202524 0.026229719
0.12629595 0.12020114 0.026223306
0.12676632 0.12026123 0.026276713
0.12723772 0.12022838 0.026287824
0.12772784 0.12024955 0.026254037
0.12825271 0.12024878 0.026181566
0.12873314 0.12027674 0.026196569
0.12930091 0.12025856 0.026200522
0.12978782 0.12023681 0.026247935
0.13024844 0.12027779 0.026273414
0.13074695 0.12024679 0.026272887
0.13122849 0.12025416 0.026268907
0.13172117 0.12027693 0.026238989
0.13219991 0.12022132 0.026228216
0.13270585 0.12022978 0.026098639
0.077869058 0.12061361 0.026423575
0.078286916 0.12079668 0.026300358
0.078806654 0.12073334 0.02618661
0.079257675 0.12073285 0.026147382
0.079706289 0.12078491 0.02615016
0.080285691 0.120782 0.026176332
0.08075989 0.12073898 0.026156738
0.081284173 0.12076493 0.026158521
0.081765205 0.12079024 0.026166659
0.082241297 0.12071215 0.026156934
0.082760446 0.12075748 0.026144668
0.083253048 0.12076718 0.026143571
0.083776616 0.12075532 0.026175959
0.08424519 0.12075443 0.026166154
0.084716469 0.12069876 0.026162347
0.085266255 0.12076163 0.026149051
0.085785657 0.12072717 0.026135642
0.086244792 0.12072095 0.02618758
0.086738549 0.12071507 0.026154999
0.087291256 0.12075031 0.026176099
0.087773569 0.12075742 0.026148746
0.088243313 0.12074442 0.026137175
0.088773891 0.1207713 0.026120037
0.089241743 0.12079388 0.02608783
0.089730442 0.12078827 0.026102964
0.090284996 0.12077883 0.026137738
0.090743072 0.12074798 0.026132906
0.091324396 0.12075622 0.02606659
0.091821894 0.12072615 0.026061758
0.09223181 0.12073024 0.026068961
0.092744082 0.12076535 0.026060799
0.093294777 0.1207092 0.026064582
0.093785316 0.1207095 0.026091129
0.094275892 0.12071454 0.026066065
0.094762646 0.12075454 0.026090307
0.09527307 0.12071206 0.026195869
0.095784053 0.12069968 0.02622425
0.096201226 0.12073845 0.026236044
0.096722364 0.12076299 0.026200539
0.097234719 0.1207272 0.026171265
0.097763389 0.12073968 0.026125185
0.098195009 0.12071256 0.0261482
0.098699503 0.12076113 0.026093451
0.099280834 0.12074152 0.026126105
0.099736601 0.12082489 0.026166437
0.10026023 0.12076612 0.026156025
0.10070812 0.12082407 0.026148181
0.10126816 0.12074408 0.02610125
0.10177658 0.12083452 0.026135366
0.10229408 0.12074137 0.026112882
0.10276016 0.12074008 0.026154
0.10327944 0.12075339 0.026184194
0.10375559 0.12076637 0.026181454
0.10425736 0.12069351 0.026165586
0.1047442 0.12074913 0.026176505
0.10525465 0.12073755 0.026186822
0.1057527 0.12075622 0.026174527
0.10624745 0.12074437 0.026165662
0.10671861 0.12074681 0.026162488
0.10723122 0.12070631 0.026155146
0.1077574 0.12077077 0.026161404
0.10829202 0.1207732 0.026149914
0.10875762 0.12076962 0.026157321
0.10923481 0.12073493 0.026130693
0.10967247 0.12071998 0.026118886
0.11027177 0.1207181 0.02613272
0.11076815 0.12080652 0.026122615
0.11126594 0.12071544 0.026146308
0.11172146 0.12077699 0.026144544
0.11223268 0.12075797 0.026141426
0.11276328 0.12073639 0.026166193
0.11329351 0.12075044 0.026172092
0.11378752 0.12073058 0.026148155
0.11427116 0.12071671 0.0261652
0.11475266 0.12071836 0.026188113
0.11526856 0.12076671 0.026204258
0.11575481 0.12073535 0.026166609
0.1162621 0.12069296 0.026172319
0.11673152 0.12072824 0.026165599
0.11721732 0.12078655 0.026177064
0.11772158 0.12076709 0.026174491
0.11822811 0.12072702 0.026194412
0.11872748 0.12076562 0.026233537
0.11924967 0.12073047 0.026259581
0.11975233 0.12075791 0.026256522
0.12022483 0.12071217 0.026260039
0.12072767 0.12074471 0.026210539
0.12128041 0.12075037 0.026193576
0.12175372 0.12077823 0.026162205
0.12226921 0.12075823 0.026193878
0.12275796 0.12070898 0.026189463
0.12325045 0.1207575 0.026183484
0.12376381 0.12073793 0.026230948
0.12425383 0.12075296 0.026209163
0.12471513 0.12071733 0.026194815
0.12524267 0.12076562 0.026243081
0.12574664 0.12074509 0.026246786
0.12621611 0.12072514 0.026241852
0.12670557 0.12076006 0.026283378
0.12726375 0.12073594 0.026295025
0.12774467 0.12073316 0.026223347
0.12827274 0.12077957 0.026236653
0.12872444 0.12072419 0.026211923
0.12921834 0.12074222 0.026240829
0.12975553 0.12073998 0.026220363
0.13023803 0.12075385 0.026263952
0.13075294 0.12076481 0.026252147
0.13124803 0.12074782 0.026276784
0.13170119 0.12074486 0.026233032
0.13227244 0.12073147 0.026175467
0.13265707 0.12070607 0.026097553
0.078304194 0.12127141 0.026092002
0.078792982 0.12122766 0.026218371
0.079263963 0.12126311 0.026206655
0.079774767 0.12125155 0.026202859
0.080283515 0.12123558 0.026156479
0.080717281 0.12123782 0.026180608
0.08123894 0.12130795 0.026171802
0.081735536 0.12125494 0.026147762
0.082252286 0.1212182 0.026153713
0.08274509 0.12125333 0.026167689
0.083284289 0.12125695 0.026162662
0.08375445 0.12123039 0.026157809
0.084234945 0.12127456 0.026149133
0.084705979 0.12119089 0.026137415
0.085226424 0.12123508 0.02611365
0.085761674 0.12122472 0.02609068
0.086235017 0.12125403 0.026136775
0.086714379 0.12122936 0.026187321
0.087294862 0.12125718 0.026189087
0.087747261 0.1212251 0.0261597
0.088286519 0.12127261 0.026137851
0.088791445 0.12122924 0.026114326
0.089271069 0.12130069 0.026122682
0.089769855 0.12123816 0.026120866
0.090234309 0.12124375 0.026135793
0.0907012 0.12128726 0.02612195
0.091298036 0.12129068 0.026132703
0.091796659 0.12131399 0.026125116
0.092259094 0.12126999 0.026094649
0.092724867 0.12121411 0.026101271
0.093266726 0.12123644 0.026082505
0.093794189 0.12130228 0.026065186
0.094236158 0.12123498 0.026056377
0.094773114 0.12126458 0.026051879
0.095303752 0.12126699 0.026189862
0.095764682 0.12122052 0.026215481
0.096265033 0.12127764 0.026195835
0.096759409 0.12128288 0.026141055
0.097263403 0.12127797 0.026167031
0.097715653 0.12124688 0.02613616
0.098292567 0.12128865 0.026129311
0.098744474 0.12123004 0.026182391
0.099262998 0.12127489 0.026156478
0.099794507 0.12128396 0.026157347
0.10023592 0.12125997 0.026158031
0.1007109 0.12123776 0.026167136
0.10122652 0.1212556 0.026152771
0.1017424 0.1212128 0.026157223
0.10224516 0.12126147 0.026173875
0.10271339 0.12129892 0.026169689
0.10324832 0.12125748 0.026182305
0.10372307 0.12125275 0.026198328
0.10425575 0.12125015 0.026180219
0.10475979 0.12121848 0.026176658
0.10524453 0.12126054 0.026173234
0.10572641 0.12127015 0.026160903
0.10627262 0.1212595 0.026179016
0.10676238 0.12127586 0.026160674
0.10726517 0.12124237 0.026167793
0.10776327 0.12122741 0.026159346
0.10825059 0.12126542 0.026159622
0.10871582 0.12122709 0.026133003
0.10922408 0.12125961 0.026134945
0.10973859 0.12122284 0.026124144
0.11027538 0.12125199 0.026135225
0.11079454 0.12125634 0.026138686
0.111285 0.12129006 0.026092794
0.11178211 0.12126359 0.026152721
0.112244 0.12131014 0.026124293
0.11273101 0.12122966 0.026172068
0.11328595 0.1212256 0.026165932
0.113737 0.12126145 0.026160914
0.11422903 0.12125991 0.026161918
0.11471253 0.12124695 0.026150258
0.11526989 0.12128457 0.02615805
0.11574293 0.12121144 0.026150437
0.11625435 0.12127222 0.026163667
0.11671612 0.12125466 0.026187209
0.11726602 0.12123981 0.02618121
0.11773526 0.12128673 0.026180401
0.11825668 0.12125903 0.026213557
0.11875511 0.12125178 0.026220668
0.11927013 0.12126247 0.026254481
0.11975195 0.12128102 0.026278365
0.12026314 0.12127522 0.026247682
0.12071827 0.1212349 0.026177043
0.1212767 0.12128905 0.026193827
0.12173618 0.12129275 0.026205961
0.12227748 0.12125957 0.026192617
0.1228045 0.12127078 0.026224496
0.1232907 0.12126648 0.026227482
0.123776 0.12123895 0.026256995
0.12424917 0.12125565 0.02626323
0.12471864 0.12127419 0.026257802
0.12525782 0.12125565 0.026234843
0.12572776 0.121265 0.026237097
0.12625654 0.12124404 0.026202621
0.12674205 0.12127062 0.026282128
0.12725595 0.12125227 0.026254706
0.12772883 0.1212259 0.026276108
0.12825182 0.12128673 0.026265588
0.12873359 0.12123806 0.026276078
0.12923744 0.12128344 0.026237447
0.12972392 0.12125196 0.026266992
0.13026473 0.12127957 0.026207227
0.13077162 0.1212413 0.02624771
0.13123323 0.12121904 0.026270196
0.13171591 0.12130104 0.026196579
0.13226727 0.12125619 0.026176045
0.13269645 0.1212735 0.026194122
0.13303441 0.12142327 0.026206685
0.077948056 0.12181409 0.026037468
0.078270949 0.12177495 0.026055302
0.078720093 0.12173514 0.026178548
0.079268567 0.12174645 0.026221482
0.079720497 0.12173545 0.02617394
0.080217913 0.12173114 0.026187876
0.080744572 0.12172313 0.026172556
0.081275225 0.12181062 0.026157634
0.08175803 0.12172959 0.026186388
0.082221664 0.12172082 0.026172819
0.082707763 0.12174553 0.026150888
0.08325237 0.12172855 0.026157985
0.083742797 0.1217446 0.026187139
0.084207162 0.12179995 0.02613743
0.084752664 0.12177678 0.026126752
0.085302733 0.12177129 0.026133522
0.085745648 0.12174608 0.026115183
0.086264268 0.121764 0.026143074
0.086728275 0.12171998 0.026137993
0.087252401 0.1217142 0.02613271
0.087759361 0.12172853 0.026142823
0.088234715 0.1217564 0.026172996
0.088687748 0.12170503 0.0261216
0.089280665 0.12179343 0.026122916
0.089793146 0.12175739 0.02611077
0.090287454 0.12171079 0.026126824
0.090756655 0.12173218 0.026105788
0.091275223 0.12171498 0.026113736
0.091753475 0.12174263 0.026141565
0.092259027 0.121742 0.02611785
0.092763081 0.12167433 0.026119526
0.093231328 0.12172851 0.026061863
0.093711175 0.12176674 0.026060129
0.09429799 0.1217003 0.026054174
0.094785757 0.12177874 0.026172945
0.095243491 0.12172432 0.026185567
0.095740758 0.12173402 0.026170809
0.096230708 0.12181178 0.026183557
0.09673167 0.12173971 0.026159076
0.09722393 0.1217605 0.026179157
0.097717404 0.12172256 0.026131362
0.098230392 0.12175051 0.026165837
0.098725483 0.12172929 0.026165724
0.099266179 0.1217792 0.026174931
0.099759437 0.12174065 0.026139187
0.10024827 0.12173796 0.026151938
0.10070894 0.1216984 0.026146971
0.10123741 0.12169465 0.026128329
0.10173177 0.12172465 0.026165111
0.10223932 0.12178818 0.026158663
0.10274262 0.12177172 0.026178395
0.10327955 0.12176999 0.026188258
0.10378817 0.12173104 0.026175387
0.10427057 0.12175876 0.026165674
0.10473309 0.12170587 0.026180975
0.10524314 0.12177762 0.026175737
0.10573725 0.12174042 0.026177596
0.10625905 0.12173786 0.026174346
0.10672858 0.12175903 0.026172414
0.1072619 0.12173045 0.026160937
0.10773239 0.12169092 0.026167752
0.10826577 0.12177769 0.026154872
0.10878725 0.12174944 0.026141955
0.10932405 0.12172865 0.026093427
0.10977566 0.12175583 0.026154608
0.11025539 0.12177793 0.026148595
0.11069744 0.12175603 0.026124716
0.11123962 0.12180255 0.026148001
0.11175446 0.12173343 0.026137376
0.11230963 0.12175656 0.026162682
0.11277968 0.12172947 0.026188232
0.11325117 0.12170691 0.026149621
0.11376937 0.12177672 0.026167715
0.11422101 0.1217636 0.026153713
0.11472335 0.12175276 0.026160927
0.11528218 0.12176831 0.026153989
0.11576936 0.12171543 0.02617793
0.11625809 0.12177505 0.026178734
0.11675684 0.12171757 0.02617274
0.11722854 0.12174506 0.026193105
0.11773775 0.12174719 0.026183175
0.11830146 0.12172507 0.026221506
0.11876423 0.12175652 0.02625905
0.11924755 0.12176362 0.026261861
0.11971182 0.12176562 0.026225846
0.1202442 0.12175556 0.0262709
0.12077115 0.12171515 0.026264794
0.12126231 0.1217596 0.026272267
0.12173813 0.12175458 0.026208555
0.12227184 0.12176681 0.026185378
0.12272359 0.12173069 0.026197566
0.12329473 0.12173782 0.026218886
0.12374935 0.121735 0.026257943
0.12422574 0.12173934 0.026264824
0.12473959 0.12172681 0.026257809
0.12522322 0.12176763 0.02622446
0.12575135 0.12177462 0.026207486
0.12626231 0.12176356 0.026255783
0.12670176 0.12175929 0.026204197
0.12728526 0.12170918 0.026219729
0.12777902 0.12174692 0.026259705
0.12825026 0.12176082 0.02630757
0.12872542 0.12172251 0.02628505
0.12925597 0.12174654 0.026311921
0.12975964 0.12172523 0.026263155
0.13025241 0.12176707 0.026270853
0.13075173 0.12173075 0.02626591
0.13125412 0.12173118 0.026191903
0.13178058 0.12178545 0.026179457
0.13227107 0.12176095 0.026189344
0.13273451 0.12171356 0.026185423
0.13318034 0.12172705 0.026167661
0.077878743 0.12222183 0.026059741
0.078288227 0.12226473 0.026126923
0.078772657 0.1222446 0.0261491
0.079267547 0.12224221 0.026185749
0.079713002 0.1222178 0.026171854
0.080266684 0.12226082 0.026173582
0.080743946 0.12225179 0.026191661
0.081252657 0.12230403 0.026154334
0.081716172 0.12220723 0.026176739
0.082271464 0.12224202 0.0261869
0.082775086 0.12225873 0.026174081
0.083281562 0.12221128 0.02616819
0.083751962 0.12227447 0.02617676
0.084284306 0.12224185 0.026168289
0.084769875 0.12230639 0.026158391
0.08522895 0.12223661 0.026167236
0.085716844 0.12225997 0.026156675
0.086254336 0.122265 0.026161173
0.086752251 0.12219548 0.026144212
0.087261051 0.12229929 0.026132004
0.087750494 0.12218793 0.0261469
0.08826039 0.12225779 0.02614365
0.088716932 0.12225065 0.026151327
0.089313775 0.12228584 0.026151633
0.089736119 0.12221725 0.026106941
0.090270579 0.12229297 0.026089143
0.090731733 0.12226629 0.026084682
0.091241524 0.12227154 0.026088003
0.091725327 0.12218063 0.026110642
0.092262581 0.12216477 0.026101723
0.092746206 0.12223554 0.026116038
0.093299888 0.12223583 0.026085956
0.093776882 0.12230465 0.026104825
0.094230652 0.122233 0.026141213
0.094701044 0.12226855 0.026145419
0.095260017 0.12223292 0.026149487
0.095727317 0.12218227 0.026156843
0.096233383 0.12227689 0.026155906
0.096735209 0.12228674 0.026142733
0.097295761 0.12220198 0.026184192
0.097766325 0.12222795 0.026217908
0.098257028 0.12222591 0.026194774
0.098763697 0.12224607 0.026208427
0.099291883 0.12224086 0.026162669
0.099741094 0.1222981 0.026132196
0.10029829 0.12227612 0.026094116
0.10075719 0.12232281 0.026084775
0.10127556 0.12228888 0.026132653
0.10176087 0.12223125 0.026151262
0.10223579 0.1222774 0.026183031
0.10273278 0.12225978 0.026165057
0.10327983 0.12226056 0.026183069
0.10372625 0.12227433 0.026188767
0.10424417 0.12221938 0.026191574
0.10475568 0.12225764 0.026180161
0.10526109 0.12226495 0.026156442
0.10575719 0.12226322 0.026165316
0.10624072 0.12225591 0.026167661
0.10673779 0.12225291 0.02615843
0.10726693 0.12224254 0.02612835
0.10776155 0.1222939 0.026149718
0.10822614 0.12223592 0.02614384
0.10872257 0.12228356 0.026143298
0.10926569 0.12225103 0.026147092
0.10973722 0.12224016 0.026116882
0.11026883 0.12226517 0.026165213
0.11073988 0.12226902 0.026169546
0.11126384 0.12223286 0.026146878
0.11178771 0.12229079 0.026136775
0.11221055 0.12226769 0.02616174
0.11271942 0.1222302 0.02618546
0.11330418 0.12221964 0.026153039
0.11373655 0.12226626 0.026186135
0.11423651 0.12222385 0.026163591
0.11474152 0.12229609 0.026171673
0.11526708 0.12230943 0.026180143
0.11574785 0.12225254 0.026157269
0.11625396 0.12230238 0.026177002
0.11672831 0.12225693 0.026178584
0.11726844 0.12224662 0.026162546
0.11777214 0.12227593 0.026209893
0.11821518 0.1222776 0.026279151
0.11873829 0.12223513 0.026240863
0.11924421 0.12225895 0.026243703
0.11977976 0.12225653 0.026195241
0.12026687 0.12226767 0.026199721
0.1207383 0.12222742 0.02619605
0.12122931 0.12221624 0.026245635
0.12171591 0.12223921 0.026239894
0.12223133 0.12227523 0.026248606
0.12276348 0.12229531 0.026221689
0.12326188 0.12223134 0.026254848
0.12373844 0.12225617 0.026234994
0.12429574 0.12225242 0.026218884
0.12479669 0.12222198 0.026208585
0.12520677 0.12223002 0.026204592
0.12570848 0.12227156 0.026260031
0.12628527 0.12226782 0.026204212
0.12675919 0.12228638 0.026198966
0.12724194 0.12223081 0.026207574
0.12777409 0.12228853 0.026259575
0.12827587 0.1222578 0.026270598
0.12874025 0.1222221 0.026286103
0.1292752 0.12223376 0.026272422
0.12976244 0.1221994 0.026301961
0.13027163 0.12224856 0.026248096
0.13074347 0.12227257 0.02630198
0.13125646 0.12221831 0.026176427
0.13171481 0.12227819 0.026175627
0.1322256 0.12224595 0.026180625
0.13273111 0.12227781 0.026130324
0.13311596 0.12215588 0.026071211
0.077856429 0.12278045 0.026150666
0.07822226 0.12276269 0.026125384
0.078710571 0.12275185 0.026174782
0.079214074 0.12274168 0.026174231
0.079731449 0.12271542 0.02615162
0.080212764 0.12272236 0.02614411
0.080716148 0.12273769 0.026158677
0.08127448 0.12279704 0.02617017
0.081756957 0.12275615 0.026142934
0.082253493 0.1227385 0.026164366
0.082727723 0.1227309 0.026174443
0.083273612 0.12272201 0.0261661
0.08377859 0.12272897 0.02616694
0.084248029 0.12273731 0.026163561
0.084728293 0.12278266 0.026184857
0.085262716 0.1227583 0.026178522
0.085743517 0.12273638 0.026185436
0.086251654 0.12271419 0.026181193
0.086719662 0.12274876 0.026148153
0.087245174 0.12275437 0.026130827
0.0877598 0.12276065 0.026099527
0.088252351 0.12271206 0.026098469
0.08874394 0.12272041 0.026129484
0.0892547 0.12275159 0.026157947
0.089726403 0.12274376 0.026141774
0.090231612 0.12277795 0.026128767
0.090775497 0.1227668 0.026075223
0.091258422 0.1227387 0.026075345
0.091729589 0.12272452 0.026083987
0.09223862 0.12267628 0.026082581
0.092710853 0.12280387 0.026084421
0.093239732 0.1226964 0.026075074
0.093702301 0.12276127 0.026097888
0.094247788 0.12273797 0.026128151
0.094772898 0.12274162 0.026082732
0.095206268 0.12270641 0.026076332
0.095757656 0.12271662 0.026112808
0.096234158 0.12275998 0.026122034
0.096737236 0.12279997 0.026160181
0.097241528 0.12270934 0.026149085
0.097749338 0.1227708 0.026142381
0.098262526 0.12272113 0.026132295
0.098735787 0.12277617 0.026168166
0.099263936 0.12274522 0.026155714
0.099715129 0.12278276 0.026119651
0.10026443 0.12278754 0.026102275
0.10074568 0.12275957 0.02614986
0.10124408 0.12275472 0.026129762
0.10176013 0.12271617 0.026157614
0.10228655 0.12280862 0.026147366
0.10276484 0.12273775 0.026170146
0.10327753 0.12275367 0.026170766
0.10381167 0.12274277 0.026190793
0.10424825 0.12270927 0.026186695
0.10473785 0.12274926 0.02617857
0.10525039 0.12272374 0.026177503
0.1057189 0.12278666 0.026144981
0.10627905 0.12272747 0.026150776
0.10674938 0.12273829 0.026140187
0.10723262 0.12270607 0.026128585
0.10776149 0.12275796 0.026104124
0.10829148 0.12276316 0.026147986
0.10876779 0.12276103 0.026169825
0.109279 0.12275495 0.026187042
0.10974549 0.12270693 0.026153762
0.11024202 0.12277895 0.026154852
0.11073221 0.1227788 0.02616819
0.11126561 0.12274161 0.026172528
0.11172554 0.12275073 0.026149251
0.11225242 0.12278625 0.026192347
0.11272833 0.12269859 0.026180493
0.11328515 0.1227315 0.026159123
0.113792 0.12275056 0.026177373
0.11426826 0.12273066 0.026173208
0.11473573 0.12276428 0.026186856
0.11525381 0.12280065 0.026205182
0.11571903 0.12272113 0.026233185
0.1161849 0.12277322 0.026162287
0.11670268 0.12276513 0.026160577
0.11724556 0.1227579 0.02617152
0.11772072 0.12276242 0.026231531
0.11826722 0.12269197 0.026275881
0.1187401 0.12275429 0.026212841
0.11929404 0.1227698 0.026221637
0.11973967 0.12275086 0.026258647
0.12021749 0.12273993 0.026194192
0.12073113 0.12274241 0.026183985
0.12128498 0.12272793 0.026168538
0.12179225 0.12275133 0.026241485
0.12226965 0.1227317 0.026269699
0.12274315 0.12281132 0.026260482
0.12326747 0.12272412 0.026241433
0.12375634 0.12273512 0.026251409
0.12423321 0.1227425 0.026197761
0.12471538 0.12274294 0.026223024
0.12527411 0.12276205 0.026215618
0.12576343 0.12277135 0.026281657
0.12624921 0.12276147 0.026254296
0.12670286 0.12277219 0.026231546
0.12726748 0.12272998 0.026193766
0.1277042 0.12275758 0.026261279
0.12824972 0.12272095 0.02623741
0.12876052 0.12270653 0.026264252
0.12923954 0.12271828 0.026295746
0.1297413 0.12274547 0.026249761
0.13023487 0.12274497 0.0262677
0.13070202 0.12277249 0.026244231
0.13124801 0.12270716 0.026154321
0.13171943 0.12276075 0.026162656
0.132155 0.1227004 0.026126621
0.077498518 0.12328972 0.026148124
0.077773102 0.12323654 0.026162574
0.078232139 0.12327053 0.026191939
0.078699857 0.12325871 0.026220303
0.079261966 0.12323745 0.026292143
0.079739429 0.12322826 0.026266849
0.080263987 0.12329704 0.026263759
0.080737285 0.12325559 0.026175668
0.081274793 0.12326078 0.026214654
0.081743583 0.12326151 0.026203832
0.082276814 0.12330039 0.02620939
0.082733788 0.12329137 0.026198724
0.083217286 0.12328897 0.02617746
0.083739668 0.12326845 0.026154608
0.084266618 0.12320361 0.026161585
0.084772758 0.12324511 0.026176354
0.085259609 0.12323666 0.026179533
0.085740305 0.12328131 0.026173584
0.086239219 0.12323432 0.026171776
0.086772799 0.12325791 0.026133595
0.087265134 0.12327246 0.026130056
0.087746851 0.12325183 0.026129752
0.088299498 0.1232407 0.026071388
0.088823415 0.12326165 0.02607663
0.089234583 0.12323943 0.026102401
0.089731604 0.12326831 0.026146531
0.09026625 0.12325741 0.026104882
0.09079913 0.12329998 0.026064599
0.091257729 0.1232208 0.026068721
0.091741562 0.12322706 0.026079228
0.092278138 0.12327736 0.026103528
0.092755586 0.12328077 0.026121456
0.093280084 0.12326816 0.026121885
0.093703613 0.12327194 0.026142353
0.094191954 0.12329187 0.02614232
0.094705045 0.12324 0.026086751
0.095296018 0.12326811 0.026074382
0.095777065 0.12325993 0.026093766
0.096238352 0.12323983 0.026116332
0.09675777 0.1232622 0.026143342
0.097283609 0.12322595 0.026159562
0.097736746 0.1232831 0.026157377
0.098283619 0.12327066 0.026156811
0.098742202 0.12329696 0.026150575
0.099247508 0.1232986 0.026167555
0.099722624 0.12327677 0.026150467
0.10027612 0.12329943 0.026127117
0.10079587 0.1232657 0.026154736
0.10125281 0.12325887 0.026125079
0.10172666 0.12327329 0.02614703
0.10223719 0.12327904 0.026173331
0.10272008 0.12322532 0.02618278
0.1032506 0.12326323 0.026165862
0.10374106 0.12325338 0.02617125
0.10426663 0.12330507 0.026175631
0.10476529 0.12326426 0.026168311
0.10522144 0.12328014 0.026153184
0.10573224 0.12327477 0.026148668
0.10623145 0.12324627 0.026160913
0.10669712 0.12325572 0.026135765
0.10729358 0.123219 0.026156029
0.10772915 0.12321763 0.026107209
0.1082371 0.12330054 0.026165087
0.10869934 0.12326463 0.026137982
0.10925759 0.12328421 0.026179744
0.10974238 0.12319211 0.026180843
0.11022442 0.12327587 0.026173951
0.11072057 0.12324934 0.026188275
0.11125414 0.12325051 0.026163785
0.11171942 0.12324097 0.026184492
0.11227004 0.12327359 0.026165809
0.11275122 0.12324566 0.026177118
0.11326136 0.12326477 0.026185801
0.1137661 0.12324425 0.026167611
0.11421572 0.12327847 0.026206177
0.11471302 0.12325038 0.026253331
0.11525615 0.12324579 0.026232157
0.11573155 0.12324682 0.026234243
0.11627039 0.12326459 0.0261638
0.11677353 0.12326345 0.02617405
0.11728156 0.12327474 0.02618964
0.11776996 0.12325373 0.026232868
0.11823676 0.12327099 0.026226882
0.11873056 0.12326814 0.026186714
0.11926105 0.12325364 0.026196796
0.11972952 0.12325467 0.026254162
0.12026714 0.12329629 0.026242588
0.12072646 0.12326434 0.026226401
0.12128118 0.12323093 0.026199257
0.12175383 0.12324681 0.026236063
0.12224379 0.1232287 0.026256418
0.12274031 0.12327547 0.026260749
0.12326157 0.12324563 0.02624952
0.12374126 0.12325281 0.026262166
0.12427285 0.12326527 0.02624532
0.12474325 0.12326578 0.026266091
0.12525983 0.12323783 0.026251398
0.12575461 0.1233013 0.026254147
0.12626824 0.12327355 0.02623749
0.1267429 0.12326363 0.026269965
0.1272174 0.12327783 0.026203938
0.12771475 0.12325956 0.02619197
0.12829557 0.12330203 0.026230099
0.12875947 0.12321765 0.026190912
0.1292683 0.12325552 0.026202569
0.12975217 0.12324145 0.026254732
0.13030198 0.12321842 0.026269607
0.13074745 0.12324657 0.026274087
0.13125338 0.12323492 0.026164908
0.13176388 0.12327481 0.026145646
0.13214755 0.12310997 0.026015952
0.077365741 0.12376435 0.026205037
0.07777787 0.12372382 0.026259955
0.078262523 0.12375148 0.026204415
0.078748971 0.12373826 0.02621871
0.079246886 0.12373634 0.026162775
0.079734802 0.12371218 0.026218547
0.08023984 0.12379101 0.026213432
0.080747493 0.12373158 0.026203476
0.081244871 0.12372867 0.026176291
0.081752539 0.12374254 0.026158052
0.082243949 0.12376488 0.026147835
0.082756177 0.12377728 0.026226962
0.083261624 0.12374548 0.026193248
0.083759069 0.12375053 0.026220521
0.084272087 0.12369863 0.026177168
0.084754214 0.12373961 0.026177591
0.085250571 0.12372392 0.026160153
0.085723817 0.12378152 0.02614665
0.086280257 0.1237743 0.026152143
0.086758979 0.12373488 0.026131464
0.087237805 0.12370061 0.026101185
0.087742649 0.12370069 0.026115816
0.088223308 0.12370469 0.026099579
0.088685073 0.12377004 0.026099352
0.089298069 0.12380389 0.026077172
0.089780435 0.12375132 0.026083028
0.090276927 0.12370102 0.026125723
0.090807736 0.12376219 0.026120408
0.091256365 0.12374687 0.026109302
0.091763519 0.12376896 0.026144046
0.092232309 0.12377002 0.026191607
0.092736453 0.1237391 0.026177853
0.093284689 0.12376023 0.026172709
0.093798138 0.12370899 0.026156507
0.09428063 0.12375131 0.026155848
0.094730988 0.12376673 0.026129354
0.095253684 0.12379619 0.026107455
0.095768347 0.12373243 0.026122209
0.096284777 0.12369832 0.026110737
0.096781164 0.12384399 0.026128257
0.097257748 0.12378774 0.026162505
0.097753264 0.12375104 0.026163014
0.098223709 0.12375467 0.026154533
0.098741032 0.1237965 0.026197763
0.099279888 0.12376039 0.026139377
0.099792846 0.12374831 0.026178418
0.10027862 0.12375689 0.026158394
0.10075133 0.12372147 0.02611414
0.10126509 0.12370396 0.026126545
0.10178676 0.12376796 0.026146766
0.10228149 0.12372927 0.026168032
0.10276838 0.12373368 0.026172142
0.10325573 0.12371339 0.026195416
0.10373331 0.1237815 0.026177766
0.10427625 0.12377484 0.026152795
0.10473325 0.12378792 0.026163852
0.10524272 0.12377829 0.026159851
0.10573186 0.12377707 0.026163628
0.10625966 0.12377469 0.026159577
0.10676739 0.12373286 0.026150137
0.10725109 0.12374558 0.026151275
0.10777947 0.12366195 0.026136784
0.10824525 0.12374049 0.026177378
0.10876549 0.12374175 0.026193408
0.10926292 0.12378062 0.026213229
0.10975738 0.12374519 0.026218526
0.11023649 0.12376463 0.02627095
0.11073121 0.12377803 0.026211996
0.1112526 0.12375987 0.026192982
0.11174627 0.12372324 0.026158066
0.11224668 0.12375433 0.026184345
0.11273694 0.1237506 0.026177598
0.11326493 0.12374647 0.02617741
0.11373031 0.12373567 0.026189553
0.11427557 0.12373061 0.026218928
0.11479603 0.12366548 0.026115283
0.11523001 0.12374596 0.026116163
0.11573596 0.12372525 0.026159998
0.11625235 0.12373876 0.026163448
0.11672642 0.1237578 0.026174635
0.11724384 0.12376942 0.026149215
0.11772023 0.12373129 0.026202282
0.11828122 0.12376823 0.026214058
0.11878025 0.1238025 0.0262748
0.11926606 0.12375101 0.026271703
0.1197566 0.12374149 0.026284961
0.12026021 0.1237606 0.026287884
0.12077148 0.12374999 0.026283337
0.12124898 0.12372828 0.026255867
0.12174553 0.12377326 0.026258154
0.12226322 0.12372207 0.026229348
0.12273721 0.1237674 0.026250955
0.12326917 0.12373038 0.02629224
0.12375438 0.12373401 0.026312327
0.12422964 0.12373187 0.026294611
0.12471534 0.12375129 0.026244363
0.12528358 0.1237186 0.026227389
0.12574217 0.12374246 0.026258305
0.12627189 0.12375069 0.026249252
0.12675755 0.12375093 0.026299208
0.12725423 0.12372931 0.026268657
0.12772194 0.12374264 0.026257571
0.12823872 0.12374943 0.026167298
0.12875326 0.12372831 0.026192892
0.12926862 0.12376627 0.026177585
0.12978944 0.12371116 0.026237492
0.13023661 0.12367157 0.026259497
0.13073233 0.12376633 0.026269633
0.13122912 0.1237468 0.026231309
0.13166115 0.12372129 0.026128551
0.13227339 0.1237756 0.026023552
0.077342786 0.12422939 0.026257923
0.077793159 0.12428585 0.026351042
0.078212604 0.12427776 0.026275383
0.078716345 0.1242279 0.026215419
0.079200543 0.12421564 0.026170349
0.079747699 0.12427203 0.026162906
0.080275655 0.12426228 0.026175719
0.080736004 0.1242714 0.026156139
0.081221692 0.12421638 0.026171755
0.081673771 0.12419766 0.026146259
0.082269646 0.12420589 0.026121587
0.08270622 0.12420712 0.026126891
0.083253264 0.12425954 0.026164124
0.083744623 0.12426171 0.026175043
0.084226817 0.12422001 0.026183313
0.084744014 0.12424688 0.026137751
0.085243061 0.12422284 0.026139855
0.085765854 0.12421572 0.026133034
0.08626458 0.12431667 0.026109871
0.08673919 0.12423308 0.026112821
0.087253556 0.12426062 0.026067048
0.087702811 0.12421572 0.026062394
0.08826413 0.12417612 0.026044285
0.088725582 0.12428693 0.026083354
0.089261852 0.12426543 0.026071474
0.089695968 0.12429801 0.026087649
0.090292767 0.12425385 0.026116313
0.090729378 0.12418743 0.026127758
0.091226116 0.12422626 0.026125833
0.091754533 0.12424353 0.02615867
0.092215367 0.12425101 0.026146198
0.09280394 0.12424191 0.026127161
0.093237273 0.12429615 0.026088735
0.093760535 0.12419461 0.026129473
0.094270959 0.12422626 0.026108002
0.094736926 0.12424598 0.02613363
0.095270596 0.1242868 0.02613456
0.095745206 0.12430276 0.026126744
0.096249618 0.12424384 0.026125431
0.096748188 0.12423788 0.026133373
0.097260274 0.12421336 0.026138127
0.097742394 0.12421285 0.026178265
0.098250702 0.12425419 0.026201773
0.098742373 0.1242688 0.026180973
0.099252678 0.12425119 0.026192112
0.099730439 0.12424226 0.026159631
0.10027928 0.12425963 0.026155828
0.10076868 0.1242835 0.026148921
0.10125388 0.12431783 0.026118763
0.10177541 0.12424109 0.026141113
0.1022621 0.12425274 0.026180843
0.10274811 0.12429475 0.026151678
0.10330658 0.12425829 0.026169974
0.10378926 0.12427732 0.026196226
0.10423724 0.12421463 0.026181716
0.10473303 0.12425739 0.02615964
0.10524666 0.12422173 0.026184561
0.10571896 0.12428011 0.02615157
0.10621702 0.12429761 0.026180843
0.10670538 0.12422077 0.026185907
0.10720134 0.12424677 0.026209934
0.10772278 0.12420452 0.026137596
0.10826383 0.12428853 0.026126593
0.10877373 0.12426694 0.026150335
0.1092371 0.12428372 0.02621514
