# .PCD v0.7 - Point Cloud Data file format
VERSION 0.7
FIELDS x y z rgb
SIZE 4 4 4 4
TYPE F F F U
COUNT 1 1 1 1
WIDTH 1011
HEIGHT 1
VIEWPOINT 0 0 0 1 0 0 0
POINTS 1011
DATA ascii
-0.001729094 -0.023767853 0.025500001 4278255360
-0.0014756785 -0.024011994 0.0255 4278255360
-0.00076362223 -0.023768514 0.025500003 4278255360
-0.00028445449 -0.023746116 0.025500001 4278255360
0.00027939823 -0.023695134 0.025500001 4278255360
0.00072824751 -0.023799574 0.025500001 4278255360
0.0012729601 -0.023784867 0.025500001 4278255360
0.0017226955 -0.023801574 0.025500001 4278255360
0.0022866947 -0.0237977 0.025500001 4278255360
0.0027567542 -0.023768108 0.025500001 4278255360
0.003255439 -0.023746619 0.025500001 4278255360
0.0037556486 -0.023781335 0.025500001 4278255360
0.0041902773 -0.02371815 0.025500001 4278255360
0.0047233091 -0.023779552 0.025500003 4278255360
0.0052311067 -0.023719816 0.025500001 4278255360
0.005744095 -0.023750681 0.025500001 4278255360
0.006231463 -0.023793481 0.025500001 4278255360
0.0067321244 -0.023722824 0.025500001 4278255360
0.0069431453 -0.024015097 0.0255 4278255360
0.0077791344 -0.023771219 0.025500001 4278255360
0.0082829846 -0.023765635 0.025500003 4278255360
0.0086241961 -0.023751464 0.0255 4278255360
0.0091386642 -0.023821343 0.0255 4278255360
0.0097172363 -0.023695465 0.025500001 4278255360
0.010229228 -0.023774048 0.025500001 4278255360
0.010774634 -0.023773177 0.025500001 4278255360
0.011270335 -0.023717331 0.025500001 4278255360
0.01172129 -0.023775503 0.025500001 4278255360
0.012250868 -0.023741312 0.025500001 4278255360
0.012753105 -0.023731709 0.025500003 4278255360
0.01329856 -0.023768704 0.025500001 4278255360
0.013765904 -0.023712814 0.025500001 4278255360
0.014238753 -0.023754349 0.025500003 4278255360
0.014703528 -0.023767957 0.025500001 4278255360
0.015269367 -0.023755893 0.025500003 4278255360
0.015715841 -0.023707898 0.025500003 4278255360
0.016232058 -0.023720564 0.025500001 4278255360
0.016814003 -0.023753818 0.025500001 4278255360
0.01724438 -0.023697849 0.025500003 4278255360
0.017753808 -0.023709808 0.025500001 4278255360
0.018268533 -0.023727475 0.025500001 4278255360
0.018779164 -0.023778148 0.025500001 4278255360
0.019255163 -0.02381378 0.025500001 4278255360
0.019753011 -0.023771428 0.025500001 4278255360
0.020215223 -0.023725964 0.0255 4278255360
0.020679269 -0.023640227 0.0255 4278255360
0.021029394 -0.023627969 0.0255 4278255360
0.021694902 -0.02378341 0.0255 4278255360
0.02221873 -0.023758536 0.025500001 4278255360
0.022669164 -0.023846289 0.0255 4278255360
0.023201123 -0.023735924 0.0255 4278255360
0.023607312 -0.023733849 0.025500001 4278255360
-0.02371712 -0.023210527 0.025243267 4278255360
-0.02371712 -0.023210527 0.025243267 4278255360
-0.02284422 -0.023277825 0.025500001 4278255360
-0.02223446 -0.023259874 0.025500003 4278255360
-0.021737922 -0.023233527 0.025500001 4278255360
-0.021360422 -0.023003545 0.0255 4278255360
-0.020787247 -0.023179013 0.025500001 4278255360
-0.020163244 -0.023073195 0.0255 4278255360
-0.020163244 -0.023073195 0.0255 4278255360
-0.019221691 -0.023213889 0.025500001 4278255360
-0.018757468 -0.023283834 0.025500001 4278255360
-0.018346528 -0.023200883 0.0255 4278255360
-0.017824253 -0.022808393 0.0255 4278255360
-0.017187677 -0.023245428 0.025500001 4278255360
-0.016909745 -0.02330932 0.0255 4278255360
-0.016438268 -0.02331811 0.0255 4278255360
-0.015739068 -0.023211569 0.025500001 4278255360
-0.015310814 -0.023199385 0.0255 4278255360
-0.0149916 -0.023277864 0.0255 4278255360
-0.014333226 -0.023205584 0.025500001 4278255360
-0.01402552 -0.023182513 0.0255 4278255360
-0.013335306 -0.023344541 0.025500001 4278255360
-0.012774203 -0.023223599 0.025500001 4278255360
-0.0122199 -0.023229042 0.025500001 4278255360
-0.011793621 -0.023255609 0.025500001 4278255360
-0.011278782 -0.023023358 0.0255 4278255360
-0.010733342 -0.023242483 0.025500001 4278255360
-0.010238959 -0.023184873 0.0255 4278255360
-0.0097487094 -0.023245685 0.025500001 4278255360
-0.0092564095 -0.023243967 0.025500001 4278255360
-0.0087228781 -0.023253223 0.025500001 4278255360
-0.0082463259 -0.023265703 0.025500003 4278255360
-0.0078037651 -0.023150727 0.0255 4278255360
-0.0072057443 -0.023271577 0.025500001 4278255360
-0.0062559899 -0.023301769 0.025500001 4278255360
-0.0057713152 -0.022764506 0.025500001 4278255360
-0.0052627302 -0.023272684 0.025500001 4278255360
-0.0046809101 -0.023264255 0.025500001 4278255360
-0.0042150128 -0.022759937 0.025500001 4278255360
-0.0032231435 -0.023241023 0.025500003 4278255360
-0.0027090739 -0.023270534 0.025500001 4278255360
-0.0022259743 -0.023242224 0.025500003 4278255360
-0.0017747718 -0.023237891 0.025500003 4278255360
-0.0012452682 -0.023211187 0.025500003 4278255360
-0.00071846682 -0.023543317 0.0255 4278255360
-0.00030344795 -0.023201967 0.025500001 4278255360
0.00028503916 -0.023270342 0.025500001 4278255360
0.00079716288 -0.023307305 0.025500001 4278255360
0.0012441359 -0.023269657 0.025500003 4278255360
0.0017673963 -0.023204794 0.025500003 4278255360
0.0022085176 -0.023213901 0.025500001 4278255360
0.0027613416 -0.02325533 0.025500001 4278255360
0.0032621881 -0.023270007 0.025500001 4278255360
0.0037619597 -0.02323381 0.025500001 4278255360
0.0041813832 -0.023214649 0.025500003 4278255360
0.0047210376 -0.02321896 0.025500001 4278255360
0.0052144499 -0.023323294 0.025500001 4278255360
0.0057601696 -0.023268646 0.025500001 4278255360
0.0062338351 -0.023274701 0.025500003 4278255360
0.006491404 -0.023584556 0.0255 4278255360
0.007255415 -0.023219999 0.025500001 4278255360
0.0077760909 -0.023275215 0.025500001 4278255360
0.0082561662 -0.023285529 0.025500001 4278255360
0.0087172445 -0.023439962 0.0255 4278255360
0.00925304 -0.023246253 0.025500001 4278255360
0.0097684246 -0.023255963 0.025500001 4278255360
0.0099341106 -0.023349112 0.0255 4278255360
0.010675667 -0.023157183 0.0255 4278255360
0.011058518 -0.023529261 0.0255 4278255360
0.011760847 -0.023216842 0.025500001 4278255360
0.012217151 -0.02329486 0.025500001 4278255360
0.012734991 -0.023266912 0.025500001 4278255360
0.013308137 -0.023271978 0.025500001 4278255360
0.013675097 -0.023244491 0.025500001 4278255360
0.014182925 -0.023238843 0.025500001 4278255360
0.014822749 -0.023194565 0.025500001 4278255360
0.015262718 -0.023246992 0.025500001 4278255360
0.015784044 -0.023330472 0.025500003 4278255360
0.016150227 -0.023430197 0.0255 4278255360
0.016738752 -0.023253566 0.025500001 4278255360
0.017239485 -0.023222109 0.025500001 4278255360
0.017767478 -0.023236632 0.025500001 4278255360
0.018219024 -0.02333647 0.025500001 4278255360
0.01871739 -0.023254786 0.025500001 4278255360
0.019277941 -0.02327239 0.025500001 4278255360
0.019718049 -0.023220027 0.025500001 4278255360
0.020211801 -0.023322811 0.0255 4278255360
0.020732673 -0.023262188 0.025500001 4278255360
0.021285485 -0.023268459 0.025500001 4278255360
0.021727741 -0.023206806 0.025500001 4278255360
0.022240017 -0.023250114 0.025500003 4278255360
0.022753039 -0.023192942 0.025500001 4278255360
0.023606453 -0.023166174 0.025500001 4278255360
-0.023750005 -0.022725806 0.024699694 4294952960
-0.02373182 -0.022784853 0.025310114 4278255360
-0.023313191 -0.022742193 0.0255 4278255360
-0.02276716 -0.022653341 0.0255 4278255360
-0.022271469 -0.022726873 0.0255 4278255360
-0.021769904 -0.022720106 0.025500001 4278255360
-0.021315236 -0.022526301 0.0255 4278255360
-0.020783359 -0.022564102 0.0255 4278255360
-0.020282535 -0.022761449 0.025500003 4278255360
-0.019726029 -0.022672063 0.0255 4278255360
-0.0191807 -0.022742238 0.0255 4278255360
-0.018773768 -0.022715643 0.025500001 4278255360
-0.018242836 -0.022527399 0.0255 4278255360
-0.01789758 -0.022280259 0.0255 4278255360
-0.017189981 -0.022733843 0.025500001 4278255360
-0.016779769 -0.022744546 0.025500003 4278255360
-0.016594123 -0.022547882 0.0255 4278255360
-0.015801612 -0.022746434 0.0255 4278255360
-0.015473862 -0.022701424 0.0255 4278255360
-0.014748125 -0.022659382 0.0255 4278255360
-0.014313877 -0.022577181 0.0255 4278255360
-0.013710205 -0.022772586 0.025500001 4278255360
-0.013249679 -0.02262477 0.0255 4278255360
-0.013214977 -0.022439163 0.0255 4278255360
-0.012269171 -0.022768173 0.025500001 4278255360
-0.011982053 -0.022743059 0.0255 4278255360
-0.011311749 -0.022599088 0.0255 4278255360
-0.011097681 -0.022494806 0.0255 4278255360
-0.010248944 -0.022734487 0.025500001 4278255360
-0.0098695382 -0.022647616 0.0255 4278255360
-0.0092516076 -0.022695621 0.025500001 4278255360
-0.0087275812 -0.022752369 0.025500001 4278255360
-0.00723266 -0.022253035 0.025500001 4278255360
-0.0067527564 -0.02274677 0.025500001 4278255360
-0.0057713152 -0.022764506 0.025500001 4278255360
-0.0055024885 -0.022974713 0.0255 4278255360
-0.0047510415 -0.022716917 0.025500001 4278255360
-0.0038048471 -0.022743633 0.025500001 4278255360
-0.0032324553 -0.022707418 0.025500001 4278255360
-0.0027674607 -0.022713151 0.025500001 4278255360
-0.0017554039 -0.022798888 0.025500001 4278255360
-0.0012322763 -0.022798188 0.025500001 4278255360
-0.00071287615 -0.022732275 0.025500001 4278255360
-0.00030344795 -0.023201967 0.025500001 4278255360
0.00022644583 -0.022673436 0.025500001 4278255360
0.00074821198 -0.022676941 0.025500003 4278255360
0.001268183 -0.022727476 0.025500001 4278255360
0.0017516772 -0.022782682 0.025500003 4278255360
0.0022711211 -0.02281696 0.0255 4278255360
0.0027564769 -0.022819612 0.025500003 4278255360
0.0032567948 -0.022760756 0.025500001 4278255360
0.0037433745 -0.022759689 0.025500001 4278255360
0.004195956 -0.022726296 0.025500001 4278255360
0.0047361911 -0.022731373 0.025500003 4278255360
0.0052570514 -0.022741543 0.025500001 4278255360
0.0057269107 -0.022734512 0.025500001 4278255360
0.0062488653 -0.022800824 0.025500001 4278255360
0.0067802197 -0.02275373 0.025500003 4278255360
0.0072047273 -0.022778867 0.025500003 4278255360
0.0077185985 -0.022766752 0.025500001 4278255360
0.0082402769 -0.02271286 0.025500003 4278255360
0.0087214401 -0.022786221 0.025500001 4278255360
0.0093076946 -0.022913225 0.0255 4278255360
0.0097178528 -0.02271685 0.025500001 4278255360
0.010255828 -0.022802003 0.025500003 4278255360
0.010642166 -0.022762418 0.0255 4278255360
0.01124898 -0.022786651 0.025500001 4278255360
0.011767654 -0.02275184 0.025500001 4278255360
0.01222213 -0.02277915 0.025500001 4278255360
0.012768622 -0.022771792 0.025500001 4278255360
0.01319351 -0.022740342 0.025500001 4278255360
0.0137273 -0.022748673 0.0255 4278255360
0.014218301 -0.022719888 0.025500001 4278255360
0.014492903 -0.022897076 0.0255 4278255360
0.015242199 -0.022740794 0.025500001 4278255360
0.015732499 -0.022807293 0.025500001 4278255360
0.016294714 -0.022725869 0.025500001 4278255360
0.016751122 -0.022727158 0.025500003 4278255360
0.0172641 -0.022814313 0.0255 4278255360
0.017746817 -0.022750258 0.025500001 4278255360
0.018274168 -0.022721207 0.025500001 4278255360
0.018732721 -0.02269589 0.0255 4278255360
0.019263009 -0.022742903 0.025500003 4278255360
0.019616203 -0.022739157 0.0255 4278255360
0.020269152 -0.022779725 0.0255 4278255360
0.020727031 -0.022709621 0.025500001 4278255360
0.021236327 -0.02280388 0.0255 4278255360
0.021789528 -0.02277693 0.025500001 4278255360
0.022289196 -0.022757931 0.025500001 4278255360
0.022738514 -0.02268324 0.025500003 4278255360
0.023226917 -0.022778576 0.025500001 4278255360
-0.023750005 -0.022197366 0.024751754 4294952960
-0.023739982 -0.022265622 0.025244616 4278255360
-0.023304483 -0.022169992 0.0255 4278255360
-0.022867933 -0.022384934 0.0255 4278255360
-0.02232182 -0.022211341 0.025500001 4278255360
-0.021752918 -0.022263367 0.025500001 4278255360
-0.021277277 -0.022215838 0.025500001 4278255360
-0.020761529 -0.022274181 0.0255 4278255360
-0.020284116 -0.022235822 0.025500001 4278255360
-0.019761126 -0.022251526 0.025500003 4278255360
-0.019263735 -0.022254491 0.025500001 4278255360
-0.018765502 -0.022239067 0.025500001 4278255360
-0.018272948 -0.022132818 0.0255 4278255360
-0.01780396 -0.021912504 0.0255 4278255360
-0.017272426 -0.022237126 0.025500001 4278255360
-0.016787617 -0.022218728 0.025500001 4278255360
-0.016261291 -0.022259073 0.025500001 4278255360
-0.015898064 -0.021872068 0.0255 4278255360
-0.015282346 -0.022012511 0.0255 4278255360
-0.014720061 -0.022222001 0.025500001 4278255360
-0.014382081 -0.021885663 0.0255 4278255360
-0.013681285 -0.022227701 0.025500001 4278255360
-0.013451554 -0.021957487 0.0255 4278255360
-0.012762131 -0.022235569 0.025500003 4278255360
-0.012540951 -0.021926694 0.0255 4278255360
-0.011757059 -0.022207256 0.025500001 4278255360
-0.010784071 -0.022245163 0.025500001 4278255360
-0.010581744 -0.022034734 0.0255 4278255360
-0.010010327 -0.022251835 0.0255 4278255360
-0.0091997776 -0.022038231 0.0255 4278255360
-0.0087614441 -0.022237265 0.025500001 4278255360
-0.0082402015 -0.02222039 0.025500001 4278255360
-0.007727976 -0.022205928 0.025500001 4278255360
-0.0072757686 -0.021731764 0.025500001 4278255360
-0.0070355907 -0.022081556 0.0255 4278255360
-0.0062542483 -0.022266462 0.025500001 4278255360
-0.0052115261 -0.022322565 0.025500001 4278255360
-0.0047510415 -0.022716917 0.025500001 4278255360
-0.0042538894 -0.022198206 0.025500001 4278255360
-0.0037415512 -0.022217846 0.025500001 4278255360
-0.0032453486 -0.022257946 0.025500001 4278255360
-0.0022595837 -0.022258334 0.025500001 4278255360
-0.0017191678 -0.022272836 0.025500001 4278255360
-0.001338833 -0.022253105 0.025500001 4278255360
-0.00072914042 -0.022232365 0.025500003 4278255360
-0.0002925618 -0.022283565 0.025500001 4278255360
0.00022644583 -0.022673436 0.025500001 4278255360
0.00076703745 -0.022304211 0.0255 4278255360
0.0012551761 -0.022322014 0.025500001 4278255360
0.0016182786 -0.022559609 0.0255 4278255360
0.0022392434 -0.022175647 0.025500001 4278255360
0.0026812912 -0.022284752 0.025500001 4278255360
0.0032286423 -0.022254728 0.025500001 4278255360
0.0037675248 -0.022247551 0.025500001 4278255360
0.0042657568 -0.022252973 0.025500001 4278255360
0.004747815 -0.022205541 0.025500003 4278255360
0.0052273152 -0.022335639 0.025500001 4278255360
0.0057441364 -0.022261197 0.025500001 4278255360
0.0062620356 -0.022197343 0.025500001 4278255360
0.0066887676 -0.022251872 0.025500001 4278255360
0.0072552082 -0.022232497 0.025500001 4278255360
0.0077162553 -0.022230407 0.025500001 4278255360
0.0081638629 -0.022508901 0.0255 4278255360
0.0086374041 -0.022389993 0.0255 4278255360
0.0092466567 -0.022250062 0.025500001 4278255360
0.0097507173 -0.02228187 0.025500003 4278255360
0.01023906 -0.022255735 0.025500001 4278255360
0.010729535 -0.022298669 0.025500003 4278255360
0.01119929 -0.022271741 0.025500001 4278255360
0.011848309 -0.022317993 0.025500001 4278255360
0.012247262 -0.022282373 0.025500001 4278255360
0.012737259 -0.022216467 0.025500001 4278255360
0.013276326 -0.022266572 0.025500001 4278255360
0.013722539 -0.022271601 0.025500001 4278255360
0.01424823 -0.022287911 0.025500001 4278255360
0.014757753 -0.022205003 0.025500001 4278255360
0.015224122 -0.022261374 0.025500001 4278255360
0.015766378 -0.022269122 0.025500001 4278255360
0.016111674 -0.022336628 0.0255 4278255360
0.016732613 -0.022227898 0.025500001 4278255360
0.017311294 -0.022230435 0.025500001 4278255360
0.017420255 -0.022282643 0.0255 4278255360
0.018150885 -0.022309242 0.025500001 4278255360
0.018650342 -0.022239106 0.0255 4278255360
0.019255228 -0.022280695 0.025500001 4278255360
0.019752372 -0.022281639 0.025500001 4278255360
0.020218054 -0.022276495 0.025500003 4278255360
0.020738371 -0.022263218 0.025500001 4278255360
0.021200828 -0.022254195 0.0255 4278255360
0.021696994 -0.022221765 0.025500001 4278255360
0.022252455 -0.022228913 0.025500001 4278255360
0.022727177 -0.022186164 0.025500001 4278255360
0.023186674 -0.022249024 0.025500001 4278255360
-0.023750003 -0.021794543 0.025217069 4294952960
-0.023750003 -0.021794543 0.025217069 4278255360
-0.023750003 -0.021794543 0.025217069 4278255360
-0.022745449 -0.021714646 0.0255 4278255360
-0.022291614 -0.021803847 0.025500003 4278255360
-0.021813588 -0.021691037 0.0255 4278255360
-0.021237016 -0.021558385 0.0255 4278255360
-0.020790607 -0.021610241 0.0255 4278255360
-0.020247882 -0.021753974 0.025500001 4278255360
-0.019696726 -0.021783631 0.0255 4278255360
-0.019207131 -0.021716157 0.025500001 4278255360
-0.0187971 -0.021733217 0.025500001 4278255360
-0.018321931 -0.021744449 0.0255 4278255360
-0.017790318 -0.021786995 0.025500001 4278255360
-0.017330177 -0.021352366 0.0255 4278255360
-0.016772827 -0.02172591 0.025500003 4278255360
-0.016359089 -0.021641837 0.0255 4278255360
-0.015777273 -0.02176673 0.025500001 4278255360
-0.015268145 -0.021545526 0.0255 4278255360
-0.014759487 -0.021795025 0.025500003 4278255360
-0.014286684 -0.021749966 0.025500001 4278255360
-0.013775384 -0.021726603 0.025500003 4278255360
-0.013203265 -0.021418694 0.0255 4278255360
-0.012729853 -0.021766949 0.025500001 4278255360
-0.012203991 -0.021768812 0.025500001 4278255360
-0.011720873 -0.021706516 0.025500001 4278255360
-0.011242217 -0.022236865 0.025500001 4278255360
-0.011062566 -0.021311257 0.0255 4278255360
-0.0097396169 -0.021714596 0.025500003 4278255360
-0.0094467923 -0.021241624 0.0255 4278255360
-0.0089196358 -0.021598764 0.0255 4278255360
-0.0082402015 -0.02222039 0.025500001 4278255360
-0.007924852 -0.021605056 0.0255 4278255360
-0.0067791492 -0.021197872 0.025500001 4278255360
-0.0062738885 -0.021725737 0.025500001 4278255360
-0.0057437052 -0.022245176 0.025500001 4278255360
-0.0052956296 -0.021798894 0.025500003 4278255360
-0.0047408803 -0.021709735 0.025500001 4278255360
-0.0042554685 -0.021732291 0.025500003 4278255360
-0.0037415512 -0.022217846 0.025500001 4278255360
-0.0032643375 -0.021727303 0.025500001 4278255360
-0.0026744232 -0.021827463 0.025500001 4278255360
-0.0022680254 -0.021786975 0.025500001 4278255360
-0.0017396405 -0.021755146 0.025500001 4278255360
-0.001289308 -0.021735689 0.025500001 4278255360
-0.00079735869 -0.021688493 0.025500001 4278255360
-0.0005722685 -0.021821614 0.0255 4278255360
0.00025287169 -0.021772342 0.025500001 4278255360
0.00075079431 -0.021791341 0.025500001 4278255360
0.0012737998 -0.02171611 0.025500001 4278255360
0.0017747874 -0.021760561 0.025500001 4278255360
0.0022392434 -0.022175647 0.025500001 4278255360
0.0027191103 -0.021761555 0.025500001 4278255360
0.0032212976 -0.021767316 0.025500001 4278255360
0.003704886 -0.021821741 0.025500001 4278255360
0.0042182622 -0.021789311 0.025500001 4278255360
0.004687014 -0.021765582 0.025500001 4278255360
0.0053026052 -0.021756347 0.025500003 4278255360
0.0056915241 -0.021703901 0.025500001 4278255360
0.0062245708 -0.021786699 0.025500001 4278255360
0.0067561967 -0.021732558 0.025500003 4278255360
0.0072235134 -0.021729721 0.025500001 4278255360
0.0076779267 -0.021723473 0.025500003 4278255360
0.0082431315 -0.021769637 0.025500001 4278255360
0.0087829037 -0.021836782 0.025500001 4278255360
0.009287443 -0.021792082 0.025500001 4278255360
0.0097180922 -0.021752404 0.025500001 4278255360
0.010240157 -0.021757649 0.025500001 4278255360
0.010762453 -0.021802338 0.025500001 4278255360
0.011242216 -0.021768546 0.025500001 4278255360
0.011793836 -0.021743702 0.025500001 4278255360
0.012254511 -0.021758763 0.025500001 4278255360
0.012718395 -0.021739978 0.025500001 4278255360
0.013280222 -0.02174468 0.025500003 4278255360
0.01372447 -0.021758376 0.025500001 4278255360
0.014199258 -0.021687891 0.025500001 4278255360
0.014730134 -0.021797527 0.025500001 4278255360
0.0149792 -0.021975882 0.0255 4278255360
0.015727215 -0.021736886 0.025500001 4278255360
0.016240926 -0.021743955 0.025500001 4278255360
0.016760627 -0.02172781 0.025500001 4278255360
0.017249236 -0.021738846 0.025500001 4278255360
0.017732643 -0.021742113 0.025500001 4278255360
0.018199401 -0.021753026 0.0255 4278255360
0.018754601 -0.021784239 0.025500001 4278255360
0.019246789 -0.021774691 0.025500001 4278255360
0.019753043 -0.021898398 0.0255 4278255360
0.020258259 -0.021740105 0.025500001 4278255360
0.020741584 -0.021718547 0.025500001 4278255360
0.021209212 -0.021708827 0.025500001 4278255360
0.021796864 -0.021717815 0.025500001 4278255360
0.022216801 -0.021741465 0.0255 4278255360
0.022724856 -0.021758324 0.025500001 4278255360
0.023022965 -0.021734599 0.0255 4278255360
0.023745285 -0.021805784 0.025253275 4278255360
-0.023742333 -0.021274012 0.025260616 4278255360
-0.023742333 -0.021274012 0.025260616 4278255360
-0.022750413 -0.021196196 0.025500001 4278255360
-0.022278184 -0.021238428 0.0255 4278255360
-0.021773661 -0.021225167 0.025500001 4278255360
-0.021302324 -0.021288617 0.025500003 4278255360
-0.020734832 -0.021236971 0.025500001 4278255360
-0.020278247 -0.021236546 0.025500001 4278255360
-0.020146802 -0.021128282 0.0255 4278255360
-0.019264027 -0.021204218 0.0255 4278255360
-0.018726189 -0.021186987 0.0255 4278255360
-0.018217776 -0.021217456 0.025500003 4278255360
-0.017768437 -0.021127949 0.0255 4278255360
-0.017221037 -0.021248225 0.025500003 4278255360
-0.016715214 -0.021209475 0.025500001 4278255360
-0.016715214 -0.021209475 0.025500001 4278255360
-0.015739111 -0.021272499 0.025500001 4278255360
-0.01535163 -0.021286359 0.025500001 4278255360
-0.014800658 -0.021211829 0.025500001 4278255360
-0.014267857 -0.021229504 0.025500001 4278255360
-0.013773629 -0.021246562 0.025500001 4278255360
-0.013243692 -0.021227034 0.025500001 4278255360
-0.012795221 -0.02126096 0.025500001 4278255360
-0.012239137 -0.021238258 0.025500001 4278255360
-0.012127984 -0.020970697 0.0255 4278255360
-0.011277956 -0.021230036 0.025500001 4278255360
-0.010234718 -0.021302715 0.025500003 4278255360
-0.0097835446 -0.021239325 0.025500003 4278255360
-0.0094675412 -0.020943444 0.0255 4278255360
-0.0089635029 -0.020883894 0.0255 4278255360
-0.0082604941 -0.021680392 0.025500001 4278255360
-0.0077931164 -0.021278797 0.025500001 4278255360
-0.0072757686 -0.021731764 0.025500001 4278255360
-0.0064563337 -0.021550965 0.0255 4278255360
-0.0057837372 -0.021693824 0.025500003 4278255360
-0.0052459626 -0.021260953 0.025500001 4278255360
-0.004787331 -0.021283945 0.025500001 4278255360
-0.0042195702 -0.021268087 0.025500001 4278255360
-0.0037400681 -0.021229828 0.025500001 4278255360
-0.0031965047 -0.021318156 0.0255 4278255360
-0.0031965047 -0.021318156 0.0255 4278255360
-0.0017499784 -0.021255186 0.025500001 4278255360
-0.001289308 -0.021735689 0.025500001 4278255360
-0.00083592423 -0.021265693 0.025500001 4278255360
-0.00026584818 -0.021637678 0.0255 4278255360
0.00027344289 -0.02122872 0.025500001 4278255360
0.00076632574 -0.021240134 0.025500001 4278255360
0.0012305336 -0.021212233 0.025500001 4278255360
0.0017234308 -0.021241441 0.025500001 4278255360
0.0022793179 -0.021255976 0.025500001 4278255360
0.002666377 -0.021248506 0.025500001 4278255360
0.0032735781 -0.021277528 0.025500001 4278255360
0.0037284913 -0.021273224 0.025500001 4278255360
0.004269131 -0.02128825 0.025500001 4278255360
0.0047533917 -0.021260029 0.025500001 4278255360
0.0052364552 -0.021228133 0.025500001 4278255360
0.0057172519 -0.021214111 0.025500001 4278255360
0.0062198984 -0.021238977 0.025500001 4278255360
0.006731601 -0.021204008 0.025500001 4278255360
0.0072301603 -0.021268049 0.025500001 4278255360
0.0076695099 -0.021244083 0.025500003 4278255360
0.0082630655 -0.021289537 0.025500001 4278255360
0.0087277479 -0.021269487 0.025500001 4278255360
0.009224914 -0.021287257 0.025500001 4278255360
0.0097770859 -0.021255283 0.025500001 4278255360
0.010290268 -0.021199357 0.025500001 4278255360
0.010705014 -0.021277608 0.025500001 4278255360
0.011244825 -0.021231314 0.025500001 4278255360
0.011729157 -0.021268358 0.025500001 4278255360
0.011917716 -0.021536248 0.0255 4278255360
0.012729035 -0.021295257 0.025500001 4278255360
0.013253348 -0.021340504 0.025500003 4278255360
0.013751383 -0.021181883 0.025500001 4278255360
0.014236768 -0.021221511 0.025500001 4278255360
0.01477983 -0.02127571 0.025500001 4278255360
0.015251335 -0.021269323 0.025500001 4278255360
0.015766183 -0.02126753 0.025500001 4278255360
0.016271995 -0.021278095 0.025500001 4278255360
0.016722409 -0.021288535 0.0255 4278255360
0.017241681 -0.02126099 0.025500001 4278255360
0.017653458 -0.021230737 0.025500001 4278255360
0.018299473 -0.02125443 0.025500001 4278255360
0.018691732 -0.021184348 0.025500001 4278255360
0.019230856 -0.021243401 0.025500001 4278255360
0.019686751 -0.021350756 0.0255 4278255360
0.020260224 -0.021255042 0.025500001 4278255360
0.020718561 -0.02131098 0.025500001 4278255360
0.02120732 -0.021217955 0.025500001 4278255360
0.021779157 -0.021217147 0.025500001 4278255360
0.022268064 -0.021228386 0.025500001 4278255360
0.022713877 -0.021244878 0.025500001 4278255360
0.023063418 -0.021275323 0.0255 4278255360
0.023750005 -0.021281619 0.025279852 4278255360
-0.023750005 -0.020760808 0.024767587 4294952960
-0.023743087 -0.020795185 0.025302103 4278255360
-0.023365123 -0.020580076 0.0255 4278255360
-0.022758771 -0.020723699 0.025500001 4278255360
-0.022265561 -0.020744463 0.025500001 4278255360
-0.02186548 -0.020635363 0.0255 4278255360
-0.021235835 -0.020763557 0.025500001 4278255360
-0.020872202 -0.020647228 0.0255 4278255360
-0.020308405 -0.020594265 0.0255 4278255360
-0.019685617 -0.020695312 0.025500001 4278255360
-0.019284725 -0.020733796 0.0255 4278255360
-0.018755391 -0.020647682 0.0255 4278255360
-0.018319137 -0.020639796 0.0255 4278255360
-0.01779967 -0.020777194 0.0255 4278255360
-0.017248144 -0.020750506 0.025500003 4278255360
-0.017128367 -0.020761749 0.0255 4278255360
-0.016275313 -0.020753177 0.025500001 4278255360
-0.015872711 -0.020364761 0.0255 4278255360
-0.015265115 -0.020711664 0.0255 4278255360
-0.014755859 -0.020716878 0.025500001 4278255360
-0.014566403 -0.020379972 0.0255 4278255360
-0.013775898 -0.020754257 0.025500001 4278255360
-0.013258515 -0.020788405 0.025500003 4278255360
-0.012758383 -0.020800145 0.025500001 4278255360
-0.012212208 -0.020704571 0.025500003 4278255360
-0.01186897 -0.02038873 0.0255 4278255360
-0.011697401 -0.020503502 0.0255 4278255360
-0.010818829 -0.020690387 0.025500001 4278255360
-0.0097230738 -0.020761186 0.025500001 4278255360
-0.0092501631 -0.020773796 0.025500001 4278255360
-0.0084053921 -0.020821378 0.0255 4278255360
-0.0077539585 -0.020718828 0.0255 4278255360
-0.0072528883 -0.021042729 0.0255 4278255360
-0.0067281467 -0.02069803 0.025500001 4278255360
-0.0064462428 -0.021233739 0.0255 4278255360
-0.0057391878 -0.020772861 0.025500001 4278255360
-0.0052629006 -0.020785237 0.025500001 4278255360
-0.0046958956 -0.020731995 0.025500001 4278255360
-0.0042212605 -0.020773239 0.025500001 4278255360
-0.0037649979 -0.020733329 0.025500001 4278255360
-0.0032296749 -0.020766072 0.025500001 4278255360
-0.0027822151 -0.02072048 0.025500001 4278255360
-0.002244147 -0.021243257 0.025500001 4278255360
-0.0017547582 -0.020783577 0.025500001 4278255360
-0.00126035 -0.020756369 0.025500001 4278255360
-0.00083592423 -0.021265693 0.025500001 4278255360
-0.00030485872 -0.020733496 0.025500001 4278255360
0.00023940577 -0.020734606 0.025500001 4278255360
0.00075330667 -0.020713845 0.025500001 4278255360
0.0012714592 -0.020760665 0.025500001 4278255360
0.0017518286 -0.020713765 0.025500003 4278255360
0.002246117 -0.020709341 0.025500003 4278255360
0.0027285542 -0.020821877 0.025500001 4278255360
0.0033372829 -0.020815585 0.025500001 4278255360
0.0033372829 -0.020815585 0.025500001 4278255360
0.0042441464 -0.020747004 0.025500001 4278255360
0.0047550467 -0.02076282 0.025500001 4278255360
0.0052726683 -0.0207981 0.025500001 4278255360
0.005776091 -0.020760482 0.025500001 4278255360
0.0062604332 -0.020821037 0.025500001 4278255360
0.0067597399 -0.020708978 0.025500003 4278255360
0.0071999477 -0.02073326 0.0255 4278255360
0.0077818828 -0.020996355 0.0255 4278255360
0.0083262725 -0.020721536 0.025500001 4278255360
0.0087803267 -0.020734137 0.025500001 4278255360
0.0092259934 -0.020730285 0.025500001 4278255360
0.0097505171 -0.020741627 0.025500003 4278255360
0.010317809 -0.020744631 0.025500001 4278255360
0.010608951 -0.020766303 0.0255 4278255360
0.01128739 -0.020760786 0.025500001 4278255360
0.011708866 -0.020714166 0.025500001 4278255360
0.012267533 -0.020703331 0.025500001 4278255360
0.012762891 -0.020727919 0.025500001 4278255360
0.013212787 -0.020738102 0.025500003 4278255360
0.013431235 -0.020683896 0.0255 4278255360
0.014302459 -0.020732455 0.025500001 4278255360
0.014765795 -0.020737968 0.025500001 4278255360
0.01524985 -0.020778676 0.025500003 4278255360
0.015766516 -0.020742396 0.025500003 4278255360
0.016218968 -0.020899607 0.0255 4278255360
0.016749594 -0.020907808 0.0255 4278255360
0.017239468 -0.020736216 0.025500001 4278255360
0.017356055 -0.020764202 0.0255 4278255360
0.018304586 -0.020760283 0.0255 4278255360
0.018771747 -0.020812996 0.025500001 4278255360
0.019179638 -0.020760793 0.0255 4278255360
0.019733569 -0.020681219 0.0255 4278255360
0.020233335 -0.020797303 0.025500001 4278255360
0.020741053 -0.02073765 0.025500003 4278255360
0.021231806 -0.020769252 0.0255 4278255360
0.021656377 -0.02079189 0.0255 4278255360
0.022284234 -0.020760508 0.025500001 4278255360
0.022715243 -0.020862006 0.0255 4278255360
0.023261398 -0.020756925 0.0255 4278255360
0.023739312 -0.020769935 0.025224447 4278255360
0.023739312 -0.020769935 0.025224447 4278255360
-0.023748066 -0.020258717 0.025266888 4294952960
-0.023748066 -0.020258717 0.025266888 4278255360
-0.023392027 -0.020100731 0.0255 4278255360
-0.022716396 -0.020203525 0.0255 4278255360
-0.022679202 -0.02025708 0.025500001 4278255360
-0.021909954 -0.020047173 0.0255 4278255360
-0.021383649 -0.020165507 0.025500001 4278255360
-0.020741172 -0.020015107 0.0255 4278255360
-0.020256996 -0.020209149 0.0255 4278255360
-0.019760028 -0.020235524 0.025500001 4278255360
-0.019654039 -0.020106107 0.0255 4278255360
-0.01871728 -0.020273684 0.025500003 4278255360
-0.018246284 -0.020247553 0.0255 4278255360
-0.017845593 -0.020069204 0.0255 4278255360
-0.017363895 -0.020152165 0.0255 4278255360
-0.01678608 -0.020210793 0.025500001 4278255360
-0.01631289 -0.020290764 0.0255 4278255360
-0.015767399 -0.020255409 0.025500003 4278255360
-0.015276931 -0.020153759 0.0255 4278255360
-0.014766798 -0.020233177 0.025500001 4278255360
-0.014144081 -0.019882089 0.0255 4278255360
-0.013702382 -0.020230075 0.025500001 4278255360
-0.013236471 -0.020272845 0.025500001 4278255360
-0.012723564 -0.020254828 0.025500001 4278255360
-0.012270813 -0.020247335 0.025500001 4278255360
-0.011873155 -0.019809928 0.0255 4278255360
-0.011314352 -0.019784203 0.0255 4278255360
-0.010825242 -0.02040262 0.0255 4278255360
-0.010249246 -0.020282365 0.025500001 4278255360
-0.0097735943 -0.01991016 0.0255 4278255360
-0.0087151984 -0.020256637 0.025500003 4278255360
-0.008226078 -0.019939769 0.0255 4278255360
-0.0078665596 -0.020120131 0.0255 4278255360
-0.007241766 -0.02024609 0.025500001 4278255360
-0.0061950353 -0.020264467 0.025500001 4278255360
-0.00571405 -0.02024854 0.025500001 4278255360
-0.0052471282 -0.020231573 0.025500001 4278255360
-0.0047513437 -0.020207314 0.025500001 4278255360
-0.0042361598 -0.020259786 0.025500001 4278255360
-0.0037206663 -0.02033738 0.025500001 4278255360
-0.0032959087 -0.020222392 0.025500001 4278255360
-0.0027822151 -0.02072048 0.025500001 4278255360
-0.0022324696 -0.020246116 0.025500001 4278255360
-0.001752832 -0.020216202 0.025500001 4278255360
-0.0012764985 -0.02024674 0.025500001 4278255360
-0.00075675728 -0.020231869 0.025500001 4278255360
-0.00024637056 -0.020276885 0.025500001 4278255360
0.00025553812 -0.020250035 0.025500001 4278255360
0.00072233222 -0.020297114 0.025500001 4278255360
0.0012341127 -0.020219939 0.025500001 4278255360
0.0017116333 -0.020236233 0.025500003 4278255360
0.0020032816 -0.020649236 0.0255 4278255360
0.0028090246 -0.020256227 0.025500003 4278255360
0.0032154811 -0.020263584 0.025500001 4278255360
0.0036707229 -0.020265229 0.025500003 4278255360
0.0042659361 -0.020225985 0.025500001 4278255360
0.0047432058 -0.020225823 0.025500001 4278255360
0.005255199 -0.020245835 0.025500003 4278255360
0.0057974062 -0.020228341 0.025500001 4278255360
0.0062780231 -0.020177739 0.025500001 4278255360
0.0064519877 -0.020309208 0.0255 4278255360
0.0069887354 -0.020362534 0.0255 4278255360
0.0077021904 -0.020299796 0.025500001 4278255360
0.0081939092 -0.020207064 0.025500001 4278255360
0.0087969117 -0.0203507 0.0255 4278255360
0.0092549343 -0.020284841 0.025500001 4278255360
0.0097280908 -0.020184357 0.025500001 4278255360
0.01023712 -0.020176018 0.025500001 4278255360
0.010764598 -0.020281428 0.025500001 4278255360
0.011258242 -0.0203056 0.025500001 4278255360
0.011765569 -0.020231457 0.025500001 4278255360
0.012279491 -0.020290392 0.025500003 4278255360
0.012716914 -0.020215508 0.025500003 4278255360
0.013238118 -0.020289399 0.025500001 4278255360
0.013770462 -0.02023885 0.025500001 4278255360
0.013871722 -0.02022399 0.0255 4278255360
0.014236684 -0.020250896 0.025500003 4278255360
0.015207601 -0.020248968 0.025500001 4278255360
0.015570931 -0.020184567 0.0255 4278255360
0.016257152 -0.020253602 0.025500003 4278255360
0.016769027 -0.020241035 0.0255 4278255360
0.017272105 -0.020258689 0.025500003 4278255360
0.017744217 -0.020265799 0.0255 4278255360
0.018194461 -0.020226 0.025500001 4278255360
0.01861774 -0.020221688 0.0255 4278255360
0.019249575 -0.020282205 0.025500001 4278255360
0.019697484 -0.020354714 0.0255 4278255360
0.020162832 -0.02035369 0.0255 4278255360
0.02073963 -0.020282341 0.025500001 4278255360
0.021163376 -0.020251829 0.025500001 4278255360
0.021756632 -0.020284886 0.025500001 4278255360
0.022238532 -0.020298345 0.025500001 4278255360
0.022755573 -0.020295715 0.0255 4278255360
0.023241596 -0.020220514 0.0255 4278255360
0.023748543 -0.0202832 0.025202554 4278255360
0.023748543 -0.0202832 0.025202554 4278255360
-0.023735598 -0.01979053 0.025311351 4278255360
-0.023735598 -0.01979053 0.025311351 4278255360
-0.023735598 -0.01979053 0.025311351 4278255360
-0.022709027 -0.01975657 0.025500001 4278255360
-0.022340251 -0.019716116 0.0255 4278255360
-0.021776943 -0.019744821 0.025500003 4278255360
-0.021282084 -0.019634211 0.0255 4278255360
-0.020828748 -0.019699896 0.0255 4278255360
-0.020310102 -0.019738514 0.0255 4278255360
-0.019778639 -0.019729596 0.025500003 4278255360
-0.019263187 -0.01973094 0.025500003 4278255360
-0.018660234 -0.019538026 0.0255 4278255360
-0.018660234 -0.019538026 0.0255 4278255360
-0.017710477 -0.019708956 0.0255 4278255360
-0.017299764 -0.019752007 0.025500001 4278255360
-0.016728684 -0.019716304 0.0255 4278255360
-0.016235961 -0.019649185 0.0255 4278255360
-0.01588033 -0.019443778 0.0255 4278255360
-0.015265396 -0.019755695 0.0255 4278255360
-0.014694871 -0.019481577 0.0255 4278255360
-0.014256582 -0.019745119 0.025500001 4278255360
-0.013715073 -0.019696292 0.025500001 4278255360
-0.013423884 -0.019292848 0.0255 4278255360
-0.012758014 -0.019480437 0.0255 4278255360
-0.012284398 -0.01964524 0.0255 4278255360
-0.011761661 -0.019677138 0.025500001 4278255360
-0.011314352 -0.019784203 0.0255 4278255360
-0.010776509 -0.019762911 0.025500001 4278255360
-0.010225132 -0.019839574 0.025500001 4278255360
-0.0097685773 -0.01971049 0.025500001 4278255360
-0.0092824604 -0.020222325 0.025500001 4278255360
-0.0091807349 -0.019689821 0.025500001 4278255360
-0.0077841892 -0.019675108 0.025500001 4278255360
-0.0072799837 -0.019705744 0.025500003 4278255360
-0.006642356 -0.020000475 0.0255 4278255360
-0.0061772033 -0.019550126 0.0255 4278255360
-0.0057230485 -0.019776905 0.025500003 4278255360
-0.0056778882 -0.019825408 0.0255 4278255360
-0.0042772209 -0.019786758 0.025500001 4278255360
-0.0039341329 -0.019733679 0.0255 4278255360
-0.0027498812 -0.020235434 0.025500001 4278255360
-0.0022324696 -0.020246116 0.025500001 4278255360
-0.0017393646 -0.019785926 0.025500001 4278255360
-0.0012667342 -0.019803671 0.025500001 4278255360
-0.00071641069 -0.020158751 0.0255 4278255360
-0.00021741983 -0.019767538 0.025500001 4278255360
0.00028904644 -0.019780172 0.025500003 4278255360
0.0013159275 -0.019777648 0.025500001 4278255360
0.001749409 -0.019689484 0.025500001 4278255360
0.0022584922 -0.019723427 0.025500001 4278255360
0.0028322462 -0.019698406 0.025500001 4278255360
0.0030269129 -0.019709729 0.0255 4278255360
0.0035604974 -0.019671705 0.0255 4278255360
0.0041197198 -0.020099103 0.0255 4278255360
0.0047748811 -0.019746473 0.025500001 4278255360
0.0052312496 -0.019793497 0.025500001 4278255360
0.005780064 -0.019761493 0.025500001 4278255360
0.0062705157 -0.019732203 0.025500003 4278255360
0.0067639789 -0.019708481 0.025500003 4278255360
0.0072155609 -0.019761223 0.025500001 4278255360
0.0077521782 -0.019679394 0.025500001 4278255360
0.0082720956 -0.019721836 0.025500001 4278255360
0.0084537659 -0.02022526 0.0255 4278255360
0.0092735142 -0.019749805 0.025500001 4278255360
0.0092735142 -0.019749805 0.025500001 4278255360
0.010094724 -0.01993856 0.0255 4278255360
0.010753127 -0.019756231 0.025500001 4278255360
0.011244739 -0.019807212 0.0255 4278255360
0.011769671 -0.019725472 0.025500001 4278255360
0.012258854 -0.019774724 0.025500001 4278255360
0.012728199 -0.019747397 0.025500003 4278255360
0.013272652 -0.019738764 0.025500001 4278255360
0.013345823 -0.019905776 0.0255 4278255360
0.014270518 -0.019806938 0.025500001 4278255360
0.014739647 -0.019724471 0.025500001 4278255360
0.015223126 -0.019950138 0.0255 4278255360
0.015657319 -0.019865014 0.0255 4278255360
0.016226796 -0.019738819 0.025500001 4278255360
0.016699152 -0.019879255 0.0255 4278255360
0.01721199 -0.019776821 0.025500001 4278255360
0.017566022 -0.019762576 0.0255 4278255360
0.018253054 -0.019803867 0.0255 4278255360
0.018769342 -0.019767655 0.025500001 4278255360
0.019117981 -0.019707162 0.0255 4278255360
0.019671304 -0.019822503 0.0255 4278255360
0.019762507 -0.019754127 0.025500001 4278255360
0.02038227 -0.019888874 0.0255 4278255360
0.021225723 -0.019779297 0.025500001 4278255360
0.02169987 -0.019880865 0.0255 4278255360
0.022231961 -0.019749025 0.025500001 4278255360
0.02269873 -0.019817635 0.0255 4278255360
0.023035539 -0.01963466 0.0255 4278255360
0.02374948 -0.019762076 0.025228286 4278255360
0.02374948 -0.019762076 0.025228286 4278255360
-0.023721905 -0.019199425 0.025322184 4294952960
-0.023721905 -0.019199425 0.025322184 4278255360
-0.023721905 -0.019199425 0.025322184 4278255360
-0.022810522 -0.01928442 0.0255 4278255360
-0.022255192 -0.019261524 0.025500003 4278255360
-0.021780998 -0.019168261 0.0255 4278255360
-0.021271264 -0.019261602 0.025500003 4278255360
-0.020763122 -0.019227298 0.0255 4278255360
-0.020251706 -0.019243116 0.025500001 4278255360
-0.019766521 -0.019233372 0.025500003 4278255360
-0.019594243 -0.019295346 0.0255 4278255360
-0.019035749 -0.019184669 0.0255 4278255360
-0.018310972 -0.019098753 0.0255 4278255360
-0.017769504 -0.019193249 0.0255 4278255360
-0.017478187 -0.019171752 0.0255 4278255360
-0.016731804 -0.019199682 0.025500001 4278255360
-0.016386634 -0.019203054 0.0255 4278255360
-0.015773697 -0.019242389 0.025500001 4278255360
-0.01550102 -0.018804707 0.0255 4278255360
-0.014768154 -0.019201934 0.025500001 4278255360
-0.014241267 -0.019230446 0.025500001 4278255360
-0.013798486 -0.019239012 0.025500003 4278255360
-0.013423884 -0.019292848 0.0255 4278255360
-0.012796429 -0.019249637 0.025500003 4278255360
-0.01235494 -0.019184545 0.0255 4278255360
-0.011368115 -0.018870708 0.0255 4278255360
-0.010719723 -0.019278836 0.025500003 4278255360
-0.010359526 -0.019737942 0.0255 4278255360
-0.0097768065 -0.019129533 0.0255 4278255360
-0.009270275 -0.019246338 0.025500001 4278255360
-0.0087705525 -0.019223234 0.025500003 4278255360
-0.0082598012 -0.019245449 0.025500001 4278255360
-0.008080828 -0.018875096 0.0255 4278255360
-0.0073277764 -0.019237455 0.025500003 4278255360
-0.0068156198 -0.019277301 0.025500001 4278255360
-0.0062018679 -0.01923582 0.025500001 4278255360
-0.0057838405 -0.019233577 0.025500001 4278255360
-0.0052961828 -0.019269273 0.025500003 4278255360
-0.0047648558 -0.019488614 0.0255 4278255360
-0.0042295917 -0.01928555 0.025500003 4278255360
-0.0039341329 -0.019733679 0.0255 4278255360
-0.003687701 -0.019217713 0.025500003 4278255360
-0.0027878741 -0.01971807 0.025500001 4278255360
-0.0026843571 -0.019292651 0.025500001 4278255360
-0.001791627 -0.019335816 0.0255 4278255360
-0.0012282209 -0.019272711 0.025500001 4278255360
-0.00072806614 -0.019245196 0.025500001 4278255360
-0.00021215757 -0.019289585 0.025500003 4278255360
0.00028503285 -0.019224582 0.025500001 4278255360
0.00076628465 -0.01924995 0.025500001 4278255360
0.0012400203 -0.019250082 0.025500001 4278255360
0.0017636702 -0.019246016 0.025500001 4278255360
0.0022806667 -0.019256178 0.025500001 4278255360
0.0027553912 -0.019254962 0.025500001 4278255360
0.0032827673 -0.019300435 0.025500001 4278255360
0.0037140113 -0.019235706 0.025500001 4278255360
0.0047686212 -0.019302921 0.025500001 4278255360
0.0052671037 -0.019240307 0.025500001 4278255360
0.0058006346 -0.019253751 0.025500001 4278255360
0.0062329583 -0.019230189 0.025500001 4278255360
0.0064932015 -0.019387845 0.0255 4278255360
0.0072597689 -0.019239565 0.025500001 4278255360
0.0077280481 -0.01925992 0.025500001 4278255360
0.0082762791 -0.019261863 0.025500003 4278255360
0.0087467534 -0.019256169 0.025500001 4278255360
0.0093129305 -0.019333832 0.025500001 4278255360
0.0097221816 -0.01923055 0.025500001 4278255360
0.0099564418 -0.019568555 0.0255 4278255360
0.01032308 -0.019274399 0.025500001 4278255360
0.011265036 -0.019277049 0.025500001 4278255360
0.011345953 -0.019280896 0.0255 4278255360
0.012136799 -0.019358497 0.0255 4278255360
0.012745689 -0.019254502 0.025500003 4278255360
0.013176525 -0.019234128 0.025500003 4278255360
0.013760693 -0.019265974 0.025500001 4278255360
0.014297739 -0.019228857 0.025500001 4278255360
0.0146879 -0.019265851 0.025500001 4278255360
0.01523077 -0.019239105 0.025500001 4278255360
0.015784109 -0.019353539 0.025500001 4278255360
0.01609469 -0.019251877 0.0255 4278255360
0.016771128 -0.019325135 0.025500003 4278255360
0.016952984 -0.019455135 0.0255 4278255360
0.01763805 -0.01924633 0.0255 4278255360
0.018238651 -0.019276524 0.025500001 4278255360
0.018746704 -0.019253297 0.025500001 4278255360
0.019827146 -0.019253828 0.025500003 4278255360
0.020074289 -0.019279767 0.0255 4278255360
0.02073084 -0.019251514 0.025500001 4278255360
0.021219812 -0.01932882 0.025500001 4278255360
0.021482198 -0.019391531 0.0255 4278255360
0.022220805 -0.019279951 0.0255 4278255360
0.022244453 -0.019292951 0.025500001 4278255360
0.023173215 -0.01932672 0.025500003 4278255360
0.02372174 -0.019229069 0.025294269 4278255360
0.02372174 -0.019229069 0.025294269 4278255360
-0.023737695 -0.01871334 0.025244566 4294952960
-0.023737695 -0.01871334 0.025244566 4278255360
-0.023264773 -0.018699039 0.0255 4278255360
-0.022741299 -0.018780492 0.025500001 4278255360
-0.02239698 -0.01879064 0.0255 4278255360
-0.021805542 -0.018716324 0.025500001 4278255360
-0.021229403 -0.018754028 0.025500001 4278255360
-0.020947842 -0.018751845 0.0255 4278255360
-0.020198938 -0.018717116 0.025500001 4278255360
-0.019265609 -0.018720165 0.025500001 4278255360
-0.018753204 -0.018651558 0.0255 4278255360
-0.018332282 -0.018586772 0.0255 4278255360
-0.017733555 -0.0187706 0.025500001 4278255360
-0.017360186 -0.01864804 0.0255 4278255360
-0.016795963 -0.01882205 0.025500001 4278255360
-0.016324112 -0.018638952 0.0255 4278255360
-0.01622241 -0.018724641 0.025500001 4278255360
-0.01550102 -0.018804707 0.0255 4278255360
-0.015159458 -0.018486837 0.0255 4278255360
-0.014199469 -0.018685877 0.025500001 4278255360
-0.014057999 -0.018609254 0.0255 4278255360
-0.013292792 -0.018258233 0.025500003 4278255360
-0.012741443 -0.018285673 0.025500001 4278255360
-0.012451318 -0.0184818 0.0255 4278255360
-0.012003773 -0.018751064 0.0255 4278255360
-0.01126075 -0.018752005 0.025500001 4278255360
-0.010759022 -0.018614538 0.0255 4278255360
-0.010272451 -0.018757051 0.0255 4278255360
-0.010186473 -0.018725451 0.025500003 4278255360
-0.0092682187 -0.018790687 0.025500001 4278255360
-0.0082503213 -0.018755771 0.025500001 4278255360
-0.0081249699 -0.018328397 0.0255 4278255360
-0.0070962259 -0.018739361 0.0255 4278255360
-0.0052543515 -0.018730441 0.025500001 4278255360
-0.0047368938 -0.018776126 0.025500001 4278255360
-0.0043017119 -0.018853826 0.0255 4278255360
-0.0037651309 -0.018702202 0.025500001 4278255360
-0.0032215009 -0.018796274 0.025500001 4278255360
-0.0032215009 -0.018796274 0.025500001 4278255360
-0.0022231941 -0.018756187 0.025500001 4278255360
-0.0017500552 -0.018762454 0.025500001 4278255360
-0.0012789237 -0.018756611 0.025500001 4278255360
-0.00025141719 -0.018751875 0.025500003 4278255360
0.00022570272 -0.018701714 0.025500001 4278255360
0.00076029263 -0.018705333 0.025500001 4278255360
0.0012400203 -0.019250082 0.025500001 4278255360
0.0017743685 -0.018704569 0.025500001 4278255360
0.0021939727 -0.018772503 0.0255 4278255360
0.0027338448 -0.018725233 0.025500001 4278255360
0.0032863643 -0.018793549 0.025500003 4278255360
0.0037315332 -0.018729828 0.025500001 4278255360
0.0042242776 -0.018760119 0.025500001 4278255360
0.0047444832 -0.018723739 0.025500001 4278255360
0.0052864184 -0.018776357 0.025500001 4278255360
0.0052864184 -0.018776357 0.025500001 4278255360
0.0062191417 -0.018831661 0.025500001 4278255360
0.0067584971 -0.018802954 0.025500001 4278255360
0.0073169428 -0.018914763 0.0255 4278255360
0.0077772341 -0.018774971 0.025500001 4278255360
0.0081647253 -0.018789742 0.025500001 4278255360
0.0085222712 -0.018826364 0.0255 4278255360
0.0092867939 -0.018734315 0.025500003 4278255360
0.0097265989 -0.018728303 0.025500001 4278255360
0.010297767 -0.018714698 0.025500001 4278255360
0.010781148 -0.018747445 0.025500001 4278255360
0.011262924 -0.018744754 0.025500001 4278255360
0.011738839 -0.018724876 0.025500001 4278255360
0.012263074 -0.018784964 0.025500001 4278255360
0.012771406 -0.01876826 0.025500003 4278255360
0.013248608 -0.018755391 0.025500001 4278255360
0.013774423 -0.018826092 0.025500003 4278255360
0.014227437 -0.018744757 0.025500001 4278255360
0.01474458 -0.018746056 0.0255 4278255360
0.015161327 -0.018878167 0.0255 4278255360
0.01561208 -0.018770466 0.0255 4278255360
0.016214373 -0.018758198 0.025500003 4278255360
0.016747385 -0.018799635 0.025500001 4278255360
0.017228995 -0.01876107 0.025500001 4278255360
0.017617144 -0.018761048 0.0255 4278255360
0.018229224 -0.018773912 0.025500003 4278255360
0.018704809 -0.018764187 0.025500001 4278255360
0.019080924 -0.018788956 0.0255 4278255360
0.01972869 -0.01885606 0.0255 4278255360
0.020244863 -0.018855345 0.025500001 4278255360
0.020758549 -0.018714033 0.025500001 4278255360
0.021171359 -0.018805841 0.0255 4278255360
0.021742109 -0.018780669 0.025500001 4278255360
0.022002866 -0.01887545 0.0255 4278255360
0.022745242 -0.018739777 0.025500001 4278255360
0.023241004 -0.018783156 0.025500001 4278255360
0.023721984 -0.018661298 0.025339821 4278255360
-0.023750005 -0.018251618 0.025256131 4278255360
-0.023188425 -0.018106367 0.0255 4278255360
-0.022679849 -0.018182939 0.0255 4278255360
-0.021725455 -0.018241316 0.0255 4278255360
-0.021226695 -0.018243013 0.025500001 4278255360
-0.020765178 -0.018222041 0.025500001 4278255360
-0.020714296 -0.01809283 0.0255 4278255360
-0.019856453 -0.018193362 0.0255 4278255360
-0.01971955 -0.018138885 0.025500001 4278255360
-0.018688094 -0.018216383 0.025500001 4278255360
-0.018235791 -0.018229708 0.025500001 4278255360
-0.017813925 -0.018237641 0.0255 4278255360
-0.017270371 -0.018301971 0.025500001 4278255360
-0.016726404 -0.018222118 0.0255 4278255360
-0.016354414 -0.018217891 0.0255 4278255360
-0.01573929 -0.018290561 0.025500001 4278255360
-0.01525439 -0.018251944 0.025500001 4278255360
-0.014780447 -0.018254973 0.025500001 4278255360
-0.014241248 -0.018232502 0.025500003 4278255360
-0.013926841 -0.017933648 0.0255 4278255360
-0.013384519 -0.017838307 0.0255 4278255360
-0.012902353 -0.01803101 0.0255 4278255360
