# .PCD v0.7 - Point Cloud Data file format
VERSION 0.7
FIELDS x y z
SIZE 4 4 4
TYPE F F F
COUNT 1 1 1
WIDTH 1399
HEIGHT 1
VIEWPOINT 0 0 0 1 0 0 0
POINTS 1399
DATA ascii
0.1107251 0.099698633 0.025817633
0.11126142 0.099748008 0.025845068
0.11174065 0.099734955 0.025824634
0.11225697 0.099750064 0.025834596
0.11275171 0.099729449 0.025827082
0.11323453 0.099717237 0.02583389
0.11371525 0.099732719 0.025831873
0.11422814 0.099735595 0.025841272
0.11472273 0.099784382 0.025822034
0.11525877 0.099760666 0.025822816
0.11576986 0.09974318 0.025797047
0.11624158 0.099756934 0.025832251
0.11675218 0.099734172 0.02582578
0.11729264 0.099766053 0.025818858
0.11776911 0.099699229 0.025810782
0.1182223 0.099737838 0.025816035
0.11869767 0.099766061 0.025820713
0.11926004 0.09978535 0.025813794
0.11974796 0.099701993 0.025841258
0.12027843 0.099708758 0.025764149
0.1207559 0.099729009 0.025822761
0.12125373 0.099826075 0.025786707
0.12173038 0.099738427 0.025811763
0.1222415 0.099736579 0.025825692
0.12274647 0.099754073 0.025818517
0.12327295 0.099710479 0.02581257
0.12374332 0.099737845 0.025791066
0.12415913 0.099791884 0.025707494
0.12472844 0.099743061 0.025665578
0.12515308 0.099763818 0.025648681
0.076753378 0.10027129 0.025791083
0.077257216 0.10021909 0.025911475
0.077749722 0.10025213 0.025817225
0.078246072 0.10024748 0.02582093
0.078731127 0.10021607 0.025822284
0.079205729 0.10029917 0.025807433
0.079720825 0.10026699 0.025856815
0.080265425 0.10027333 0.025816778
0.080737799 0.10025344 0.025837198
0.081275001 0.10023224 0.02586266
0.081733026 0.10026938 0.02584002
0.082261808 0.10027672 0.025833923
0.082773827 0.100208 0.025867362
0.083260566 0.10025211 0.025818855
0.083770119 0.10027166 0.025765121
0.084249415 0.10023146 0.025789229
0.084743738 0.10026704 0.025737524
0.085223429 0.10023892 0.02578642
0.085752361 0.10025492 0.025775719
0.086320147 0.10029658 0.025900908
0.086799711 0.10023041 0.025834773
0.087248594 0.10025857 0.025911681
0.087758996 0.10024088 0.025835006
0.088271789 0.10025724 0.025847258
0.088737227 0.10022312 0.025844848
0.089251906 0.10020836 0.025835482
0.089752384 0.10024686 0.025842041
0.090263031 0.10028621 0.025829671
0.090749897 0.10024185 0.025837054
0.091261476 0.10024336 0.025841994
0.091742866 0.10018954 0.025820423
0.092240907 0.10025051 0.025822878
0.09274964 0.10029051 0.025800111
0.093244128 0.10027302 0.025805704
0.093726873 0.10025138 0.025822809
0.094280459 0.10021064 0.025825454
0.094784155 0.10024546 0.025814254
0.095263891 0.10023963 0.025810855
0.095733859 0.10022533 0.025817722
0.096288525 0.10028559 0.025791839
0.096825153 0.10028102 0.025804641
0.097233206 0.10027605 0.025813915
0.097721986 0.10023379 0.025814898
0.098264992 0.10022414 0.025780277
0.098794699 0.10027364 0.025847314
0.099204652 0.10028596 0.025813324
0.099692784 0.10021273 0.025780071
0.10026634 0.10024988 0.02580717
0.10073212 0.10024714 0.025809405
0.10128054 0.10027651 0.025762441
0.10177414 0.10020102 0.025788272
0.10223875 0.10022762 0.025839083
0.10274478 0.10024907 0.025808135
0.10324504 0.10021012 0.02583441
0.1037505 0.10025853 0.025833933
0.1042273 0.10025826 0.025795124
0.10469825 0.1002567 0.025844032
0.10523519 0.10021775 0.02583763
0.10572761 0.10022802 0.025871862
0.10621896 0.1002479 0.025857389
0.10673679 0.10026444 0.025832094
0.10723563 0.1002716 0.025831847
0.10776281 0.10023527 0.025778115
0.1082949 0.10020823 0.025799498
0.10875996 0.10029761 0.025776111
0.1092512 0.10028007 0.025811382
0.10973164 0.10027592 0.025845908
0.11026425 0.10023062 0.025841378
0.11077232 0.10027184 0.025810491
0.11125705 0.10026319 0.025825558
0.11172513 0.10026219 0.025830274
0.11225012 0.10025108 0.02580939
0.11274979 0.10026371 0.025842575
0.11324935 0.10022287 0.025821829
0.11373679 0.10026342 0.02583302
0.11425722 0.10028143 0.025824336
0.11473285 0.10026048 0.025799993
0.1152287 0.10024874 0.025824327
0.11572994 0.10024849 0.025832536
0.11626712 0.10024299 0.02581005
0.11674819 0.10025382 0.025833895
0.11730799 0.10025694 0.025810745
0.11778064 0.10026479 0.02582759
0.11825091 0.10028453 0.025833001
0.11873345 0.10027971 0.025812101
0.11926576 0.10024015 0.025825182
0.11974222 0.10030577 0.025820045
0.1202796 0.10021985 0.025800483
0.12074045 0.10026972 0.025738979
0.12126622 0.10026345 0.025801983
0.12175332 0.10024776 0.025760818
0.12221971 0.10027861 0.025810577
0.12272019 0.10025431 0.025811877
0.12326323 0.10024362 0.025814725
0.12375797 0.10025673 0.025749506
0.124209 0.1002923 0.02576147
0.12478288 0.10025795 0.025691336
0.12512417 0.10022977 0.025694551
0.076742604 0.10074159 0.02581737
0.07725995 0.10076276 0.025895422
0.07775721 0.10071618 0.02584683
0.078237347 0.10071026 0.025844892
0.078708544 0.10071787 0.025855763
0.079314046 0.10078127 0.025836509
0.079745933 0.10077981 0.025837652
0.080222324 0.10078491 0.025861854
0.080718875 0.10073745 0.025838265
0.081270225 0.10074525 0.025829151
0.081820644 0.10074329 0.025809489
0.082220636 0.10076638 0.025831809
0.082769401 0.10076647 0.025852431
0.083261281 0.10072643 0.025813319
0.083730899 0.10071307 0.025777329
0.084225424 0.10075042 0.025829308
0.084714733 0.10073552 0.025730457
0.085225493 0.10073628 0.025732657
0.085714392 0.10074467 0.02584555
0.086260438 0.10075632 0.02581856
0.086774968 0.10070672 0.025832033
0.087272987 0.10079245 0.02587809
0.087734714 0.10074306 0.025819046
0.088198051 0.10074453 0.025825134
0.088717401 0.10071684 0.025834596
0.08927951 0.10070857 0.025851149
0.08974044 0.10074158 0.025807012
0.090225816 0.10075483 0.025838524
0.090713389 0.10073037 0.02580593
0.091259614 0.10069292 0.025823092
0.091748565 0.10072978 0.025811922
0.092268609 0.1007198 0.025834585
0.092727788 0.10080605 0.025812479
0.093258291 0.10076331 0.025802355
0.09375643 0.10075679 0.025783617
0.094295964 0.10070852 0.025828497
0.094768368 0.10070566 0.025821008
0.095211789 0.10071642 0.025826048
0.095718488 0.10073218 0.025813688
0.096262403 0.10075665 0.025815077
0.096742064 0.10078295 0.025791358
0.097254224 0.10074592 0.025825975
0.097744823 0.10073315 0.025775403
0.098258242 0.10072064 0.02581415
0.098734424 0.10075719 0.025843818
0.099281281 0.10073879 0.025820365
0.099751763 0.10072156 0.025803965
0.10024783 0.10071831 0.025809793
0.10076549 0.10074897 0.02572819
0.10130031 0.10076068 0.025722876
0.10174438 0.10070581 0.025801135
0.10226706 0.10072736 0.025802944
0.10272932 0.10072422 0.025828548
0.10326387 0.10072132 0.025814461
0.10371742 0.10073682 0.025813611
0.10425499 0.1007543 0.025843039
0.10476276 0.10073294 0.025827734
0.10523145 0.10072838 0.025862345
0.10575915 0.10076338 0.025843136
0.1063131 0.10073335 0.025847409
0.10677607 0.10079769 0.025832424
0.10726296 0.10075162 0.025845194
0.10771898 0.10072567 0.025791835
0.10827153 0.10069659 0.025799921
0.10872606 0.10076737 0.025742328
0.10924804 0.10074923 0.025816379
0.10974941 0.10077445 0.025824608
0.11028569 0.10075013 0.025821269
0.11076015 0.10071792 0.0258277
0.11124079 0.10075739 0.025834255
0.11173084 0.10075869 0.025831552
0.11224404 0.1007174 0.025847539
0.1127195 0.10075197 0.025809972
0.11324537 0.10073486 0.025849747
0.11373251 0.10073804 0.025805753
0.11425905 0.10077348 0.025829105
0.11475345 0.10074944 0.025816804
0.11524286 0.10072636 0.025819959
0.11572979 0.10072994 0.025810886
0.11626179 0.10072195 0.025829976
0.11677339 0.10076637 0.0257608
0.11725029 0.10072924 0.025835507
0.11777339 0.10074977 0.025813153
0.11826219 0.10077997 0.025830517
0.11875825 0.10076544 0.025815386
0.11925104 0.10074425 0.025769992
0.11973706 0.10076366 0.025838582
0.12027325 0.10071201 0.025841752
0.1207618 0.1007185 0.025767561
0.12127899 0.10074145 0.025713969
0.12172912 0.10075086 0.025789006
0.12228063 0.10078389 0.025817698
0.12275455 0.10071198 0.025835035
0.12327535 0.10072998 0.025816044
0.12379775 0.10072461 0.02579136
0.12418928 0.10077593 0.025766043
0.12470099 0.10072499 0.025693225
0.12502128 0.10068376 0.025639892
0.076807536 0.10119113 0.025926862
0.077300526 0.10121462 0.025859006
0.077712402 0.10120106 0.025854535
0.078271799 0.10127533 0.02584192
0.078735411 0.10123598 0.025894245
0.079260647 0.10121755 0.025950771
0.079739235 0.10124329 0.025855524
0.080282576 0.10123473 0.025862308
0.080792196 0.10126603 0.025853759
0.081275068 0.10123919 0.025830448
0.081783526 0.1012288 0.025868071
0.082228325 0.10121442 0.02587143
0.082745478 0.10126135 0.02586437
0.08327394 0.10126815 0.025825787
0.083721951 0.10124972 0.025828017
0.084263988 0.10125227 0.025812123
0.084743492 0.10128162 0.025725204
0.08526963 0.10123508 0.025746668
0.08575248 0.10124754 0.025798332
0.086247705 0.10123021 0.025821313
0.086776644 0.10127745 0.025855266
0.087198101 0.10128978 0.025835782
0.0877342 0.10125539 0.025822686
0.088277914 0.10118647 0.025824584
0.088741891 0.10127855 0.025823787
0.089251429 0.10123643 0.025826028
0.089757532 0.10124308 0.025832975
0.09027417 0.10126715 0.025832348
0.090730071 0.10124933 0.025801392
0.091261312 0.10127019 0.025798231
0.091781326 0.10128216 0.025801221
0.092255965 0.10129514 0.025828676
0.092735521 0.10123544 0.025821555
0.093273535 0.10124965 0.025783211
0.093757883 0.1012162 0.025836805
0.094253317 0.10125564 0.025875509
0.094730593 0.10126209 0.025829304
0.095295653 0.10126216 0.025811661
0.095761068 0.10125625 0.025843631
0.096212901 0.10121715 0.025823003
0.096724056 0.10131036 0.025786974
0.097294427 0.10119989 0.025805457
0.097777724 0.10126369 0.02579728
0.098240912 0.10128391 0.025834501
0.098724484 0.10125662 0.025843533
0.099281676 0.10127613 0.025821337
0.099745087 0.10125194 0.025799254
0.10025647 0.10128359 0.025753891
0.10070365 0.10130328 0.025754634
0.10128319 0.10126979 0.025710905
0.10168837 0.10122521 0.025767216
0.10223053 0.10123423 0.02580932
0.10272839 0.10124195 0.025835877
0.10321812 0.10125058 0.025836242
0.10374321 0.10127068 0.025810555
0.10428681 0.10124842 0.025834639
0.10476893 0.10126062 0.025829578
0.10526807 0.10125683 0.02583929
0.10576777 0.10124294 0.025851894
0.10627527 0.1012492 0.025853837
0.10676529 0.1012688 0.025837667
0.10723953 0.10129999 0.025829203
0.10773588 0.1012379 0.025807304
0.10825269 0.10125218 0.025756095
0.10872013 0.101274 0.025763903
0.10925406 0.10125211 0.025824441
0.10976797 0.10124893 0.02581157
0.11027476 0.10122591 0.025802486
0.11077194 0.1012326 0.025838673
0.11126865 0.10124227 0.0258442
0.11172454 0.10128298 0.025833702
0.11220919 0.10126156 0.025816394
0.11271751 0.10127798 0.025831753
0.1132578 0.10126167 0.025835611
0.11375684 0.10123101 0.025829742
0.11427341 0.10125804 0.025775915
0.114758 0.10126626 0.025828246
0.11526474 0.10124906 0.025829734
0.11574436 0.10128441 0.025836146
0.11627907 0.10127906 0.025817206
0.11676387 0.10125581 0.025738021
0.11726835 0.10126017 0.025757281
0.11775973 0.10121962 0.025822476
0.11818051 0.1012585 0.025826637
0.11868814 0.10125133 0.025821276
0.11927439 0.10125843 0.025745263
0.11974954 0.10125498 0.025837848
0.12025186 0.10121483 0.025839735
0.12073092 0.10128067 0.025822969
0.1212777 0.10124943 0.025747651
0.12174706 0.10126661 0.025799125
0.1222417 0.10129465 0.025805764
0.12275506 0.10123648 0.025831614
0.12328046 0.10126688 0.025815057
0.12374236 0.10123429 0.025798338
0.1242483 0.10124734 0.025718268
0.12474596 0.1012545 0.025672102
0.076855034 0.101877 0.025608143
0.077278443 0.10177647 0.025727971
0.077695116 0.10169662 0.025851183
0.078202896 0.10172705 0.025852101
0.07869792 0.10175268 0.025926758
0.079262845 0.10172585 0.025942503
0.079783544 0.10175966 0.025881559
0.08026658 0.10171287 0.025914803
0.080778472 0.10179324 0.025843272
0.081289537 0.10173477 0.02581373
0.081760116 0.10171597 0.025832362
0.082260303 0.1017404 0.02584536
0.082768768 0.10178132 0.02583958
0.08324419 0.1017353 0.02583305
0.083801866 0.10173491 0.025834965
0.084280707 0.10174396 0.025831806
0.084816396 0.10176186 0.025741363
0.085251391 0.10172968 0.025747949
0.08574409 0.10173941 0.025815159
0.086290158 0.10174339 0.02584419
0.086728401 0.10173412 0.02581076
0.087255299 0.10177617 0.025834417
0.087701313 0.10173028 0.025832793
0.088221699 0.10172062 0.025806099
0.08873421 0.10172506 0.025829045
0.089294657 0.10172839 0.025831282
0.089755766 0.10173658 0.025816677
0.090199143 0.10173216 0.025835931
0.090734765 0.1017465 0.025802827
0.091287278 0.10172354 0.025794405
0.091736764 0.10176869 0.02579256
0.092239283 0.10175603 0.02583779
0.0927279 0.10174799 0.025795413
0.093248621 0.10175238 0.025781902
0.093717501 0.10171309 0.025825156
0.094228894 0.10173563 0.025827415
0.094726317 0.10174668 0.02583182
0.095268235 0.10175887 0.025823323
0.095775627 0.10173509 0.025820917
0.096249275 0.10173391 0.02582242
0.09673506 0.10175418 0.025809499
0.097277671 0.1017281 0.025785767
0.097705685 0.10173625 0.025760086
0.09821751 0.10176198 0.02580877
0.098722659 0.10174827 0.025825163
0.099230662 0.10173549 0.025817087
0.099733718 0.10178228 0.025776686
0.10026086 0.10177569 0.025769359
0.10072744 0.10179408 0.025805213
0.10123566 0.10171655 0.025751876
0.10173479 0.10175644 0.025759667
0.10225283 0.10173321 0.025813578
0.10275771 0.10171407 0.025810819
0.10330346 0.10173629 0.025808536
0.10374209 0.10178149 0.025817715
0.10425773 0.10177168 0.025808757
0.10473029 0.10170333 0.025818193
0.10527212 0.10173031 0.025846446
0.1057483 0.10178175 0.025839901
0.10624946 0.10174556 0.025844937
0.10670405 0.1017428 0.02582423
0.10725392 0.10177336 0.02580099
0.10774409 0.10171632 0.025807114
0.1082833 0.10173424 0.025725445
0.10871189 0.10174946 0.025798919
0.1092722 0.101718 0.0258113
0.10972638 0.10175215 0.025814787
0.11030333 0.1017179 0.025814343
0.11076519 0.10172226 0.025841512
0.1112598 0.10173669 0.025836417
0.11175259 0.10178339 0.025831115
0.11228103 0.10174979 0.025823774
0.11275 0.10175238 0.025820052
0.11325864 0.10171629 0.025825797
0.11371195 0.10174411 0.025820032
0.11423358 0.1017452 0.025833745
0.11471035 0.10175861 0.025814258
0.1152528 0.10175048 0.025822483
0.11574512 0.10175306 0.025832079
0.11626057 0.10175165 0.02579733
0.11674486 0.10176022 0.025731707
0.1172288 0.1017346 0.025755093
0.11774717 0.10171761 0.025829794
0.1182606 0.10174619 0.025829637
0.11876348 0.10173473 0.025772709
0.11921903 0.10177522 0.025740789
0.1197013 0.10173935 0.025849096
0.12026988 0.10173006 0.025819385
0.1207554 0.1017451 0.025844032
0.12127607 0.10170478 0.025772203
0.12175579 0.10178085 0.02574846
0.1222068 0.1017883 0.025780447
0.12272683 0.10172984 0.025802143
0.12325799 0.10174464 0.025820361
0.12377515 0.10172483 0.025791422
0.12423947 0.10173912 0.025693383
0.12464903 0.10174543 0.025669312
0.076801978 0.10233766 0.025676081
0.077278264 0.10229225 0.025779625
0.077778526 0.10223088 0.025866238
0.078222848 0.1022533 0.025861187
0.078769885 0.10223458 0.025916755
0.079221196 0.10227569 0.025960622
0.079751879 0.10229801 0.025876658
0.080260582 0.10226089 0.025853256
0.080721043 0.10227133 0.025811743
0.081288539 0.10222581 0.025832275
0.081736952 0.10220318 0.02582729
0.082276374 0.10228245 0.025836879
0.082742386 0.10225318 0.025843261
0.083191961 0.10223708 0.025809264
0.083778031 0.10229331 0.025858546
0.084202714 0.10225041 0.025822654
0.084724978 0.10224119 0.02577615
0.085252501 0.10224158 0.025779707
0.085776262 0.10223699 0.025793474
0.08626648 0.10224754 0.025815379
0.086734153 0.10222877 0.025849206
0.087262154 0.10224655 0.025853748
0.08771795 0.10225204 0.02580197
0.088232584 0.10225863 0.025800679
0.088725179 0.102236 0.025786297
0.089282349 0.10224088 0.025808688
0.089742132 0.10229553 0.025834082
0.090263881 0.10225909 0.025811899
0.090761423 0.1022589 0.025826601
0.091237962 0.10230862 0.025814723
0.091723032 0.10226013 0.025834881
0.09230943 0.10224639 0.025836688
0.092799529 0.10226209 0.025833707
0.093265772 0.10223839 0.025810603
0.093782909 0.10223765 0.025836753
0.094242916 0.10224076 0.025853788
0.094716333 0.10227017 0.025821643
0.095226832 0.10224187 0.02580121
0.095767781 0.10227064 0.025843829
0.096278518 0.10223909 0.025820171
0.096766137 0.10221959 0.025777169
0.09726762 0.10226593 0.025769409
0.097718254 0.10226857 0.025822055
0.09826903 0.10226832 0.025839064
0.098753504 0.10228638 0.025826972
0.099258132 0.10224999 0.025796181
0.099764273 0.10225865 0.025777403
0.10026008 0.10225382 0.025764514
0.10074036 0.10226595 0.025839362
0.10128553 0.10226524 0.025803097
0.10174703 0.10224468 0.025793772
0.1022606 0.10225105 0.025821513
0.10271457 0.10225005 0.025806932
0.10324595 0.1022523 0.025810882
0.10372684 0.10227958 0.025816707
0.10426468 0.10228673 0.025824785
0.10473216 0.10224894 0.025808467
0.10523272 0.1022385 0.025850112
0.10577303 0.10225547 0.025832245
0.10626975 0.10227125 0.025830494
0.10678849 0.10228384 0.025828211
0.10723799 0.10222603 0.025822511
0.10771678 0.10226745 0.025816543
0.10826971 0.10225511 0.025771225
0.10871359 0.10225943 0.025753958
0.10924276 0.10222726 0.025817117
0.10973082 0.10226745 0.02580636
0.11027522 0.10224164 0.02582508
0.11080707 0.10220303 0.025829779
0.11124199 0.10224178 0.025832819
0.11173832 0.1022293 0.025841609
0.11231273 0.10227539 0.025772661
0.11274523 0.10226157 0.025852649
0.11322519 0.10226543 0.025814647
0.1137106 0.10222769 0.025829308
0.1142717 0.10229297 0.025821287
0.11474654 0.10224789 0.025811071
0.11526407 0.10229513 0.025792103
0.11575678 0.10225592 0.025809743
0.11628485 0.10224368 0.02580454
0.11677606 0.10226396 0.025767338
0.11726327 0.10224416 0.025743011
0.11774662 0.10229818 0.025804954
0.11827223 0.10227278 0.025813848
0.11876126 0.10222042 0.025837697
0.11925718 0.10224636 0.025749875
0.11979022 0.10228302 0.025823304
0.12028118 0.10225767 0.025816156
0.1207694 0.10226488 0.025766619
0.12130246 0.10227111 0.025727989
0.12173089 0.10226465 0.025765184
0.12222414 0.10228192 0.025755992
0.122722 0.10224315 0.025816591
0.12326182 0.10226762 0.0258072
0.12374787 0.10225177 0.025786091
0.12426398 0.10229418 0.025771903
0.12468208 0.10228243 0.025599314
0.076745518 0.10277954 0.025740003
0.077297024 0.10277659 0.025808733
0.077780478 0.1027252 0.025851661
0.078202173 0.10276859 0.025904464
0.078695104 0.10272731 0.025912346
0.079316974 0.10272925 0.025892759
0.079705864 0.10274073 0.025830003
0.080276705 0.10274298 0.025819167
0.080749899 0.10272142 0.025826117
0.081249081 0.10271914 0.025825197
0.081714772 0.1027146 0.025819963
0.082237013 0.10275774 0.025848251
0.082742169 0.10275947 0.025843032
0.083270952 0.10274036 0.025869783
0.083730511 0.102756 0.02585615
0.084260561 0.10274973 0.025847165
0.084754534 0.10273044 0.025784146
0.08526662 0.10275049 0.025770187
0.085729234 0.10270768 0.025794012
0.086239919 0.10271226 0.025816837
0.086728252 0.10274662 0.025828576
0.087248333 0.1027546 0.025844144
0.087760814 0.10270782 0.025826255
0.088246278 0.10280406 0.025803972
0.088713326 0.10271583 0.02579093
0.089237668 0.10272267 0.02577894
0.089738972 0.10277986 0.025813878
0.090289287 0.10273103 0.025824916
0.090785392 0.10273865 0.025810026
0.091241293 0.10282323 0.025843047
0.091749169 0.10277847 0.025846237
0.092284903 0.10275674 0.025859606
0.092733532 0.10275003 0.025808156
0.093250826 0.10273273 0.025812367
0.09374404 0.10273866 0.025829514
0.094257593 0.10273249 0.025822205
0.094771497 0.10277936 0.025821449
0.095315807 0.102736 0.025829332
0.095743947 0.10273786 0.025810346
0.09625119 0.10271039 0.025810668
0.096751578 0.10273501 0.025756437
0.097218268 0.10279049 0.025820408
0.097755559 0.10276068 0.025803154
0.098253064 0.10278804 0.025826132
0.098751768 0.10275052 0.025844986
0.099296406 0.10275404 0.025806444
0.099703915 0.10274772 0.025721127
0.10025556 0.10274199 0.025757264
0.1006986 0.10276202 0.025830161
0.10126168 0.10271103 0.025775384
0.10174616 0.10275645 0.025820866
0.10223634 0.10273113 0.025802756
0.10275006 0.10273051 0.025828142
0.10329824 0.10277775 0.025825445
0.10379348 0.10271884 0.025829559
0.10423619 0.10274824 0.025825316
0.10476857 0.1027302 0.025760539
0.10524807 0.10273603 0.025826873
0.10570803 0.10273509 0.025833881
0.10628216 0.1027561 0.025824226
0.10673976 0.10276181 0.025827726
0.10723858 0.1027277 0.025821002
0.10775378 0.10274682 0.025795862
0.10827116 0.10276481 0.025791945
0.10875863 0.10273471 0.025730424
0.10925851 0.10271947 0.025786644
0.10976824 0.10275655 0.025821434
0.11027528 0.10274314 0.025810296
0.11075718 0.10269014 0.025832465
0.11127085 0.10270392 0.025810728
0.11175389 0.10274784 0.025812088
0.11225719 0.10275568 0.025786886
0.11274676 0.10273462 0.025807917
0.11324936 0.10275885 0.025819778
0.11373588 0.10270395 0.025817102
0.11426258 0.10278609 0.025820155
0.11475987 0.10275283 0.025820581
0.1152117 0.10276005 0.025798621
0.11573453 0.10278984 0.025746921
0.11623421 0.10274177 0.025747025
0.11672954 0.10274762 0.025821922
0.11728551 0.10274825 0.025754107
0.11774305 0.10276332 0.025766304
0.11824618 0.10273385 0.02582751
0.11875403 0.10271862 0.025780452
0.11925822 0.10272909 0.025803337
0.11976473 0.10276894 0.025822204
0.12023638 0.10273267 0.025826566
0.12076499 0.10276386 0.02579057
0.12124442 0.10274002 0.025730699
0.121746 0.10277126 0.025720134
0.1222472 0.10274685 0.025769642
0.12276852 0.1027362 0.025819859
0.12326503 0.10275793 0.025820257
0.12374204 0.10271639 0.025785135
0.12428374 0.1027776 0.025700085
0.12461203 0.10281974 0.025818445
0.076777123 0.10325079 0.025828833
0.077254534 0.1032493 0.025859889
0.077746443 0.1032722 0.025834989
0.078214869 0.10325927 0.025928851
0.078738227 0.10323624 0.025942907
0.079344139 0.10324118 0.025874443
0.079784311 0.10327873 0.025820285
0.080220349 0.10324142 0.025824038
0.080690637 0.10323362 0.025825271
0.081278645 0.10325678 0.025813738
0.081692539 0.10327029 0.025832111
0.082248472 0.10320172 0.025850816
0.082701452 0.10326587 0.025907811
0.083248474 0.10319918 0.025873952
0.083681926 0.10323822 0.02589641
0.08429683 0.10329235 0.025880672
0.084729172 0.10327293 0.025796598
0.085281774 0.10326546 0.025710285
0.085778832 0.10328338 0.025781173
0.086222179 0.10326214 0.025785765
0.086716533 0.10326747 0.025794884
0.087275021 0.10324725 0.025821965
0.087775178 0.1032623 0.025822788
0.088220164 0.1032495 0.02580242
0.088717289 0.10320839 0.025789386
0.089270137 0.10324558 0.025767377
0.089759 0.10324116 0.025814122
0.09023162 0.10326979 0.025757236
0.090734184 0.10327125 0.025827678
0.091247961 0.10326414 0.025841257
0.091718845 0.10328026 0.025830057
0.092272043 0.10323212 0.025841512
0.092748277 0.10325677 0.025836902
0.09325169 0.10319768 0.025815248
0.093746699 0.10328025 0.025804996
0.094271086 0.10326782 0.025784459
0.094775327 0.10327274 0.025817225
0.095261745 0.10324983 0.025860244
0.095764652 0.10326754 0.02575827
0.096277282 0.10324489 0.025750527
0.09676569 0.10320444 0.025807725
0.097266831 0.10326975 0.025798135
0.097732067 0.1032685 0.025787912
0.098232113 0.10328019 0.025827358
0.098724253 0.10321573 0.025838338
0.099250995 0.10325423 0.025742441
0.099734738 0.10325644 0.025770256
0.10023802 0.10325481 0.025756912
0.10074289 0.10328663 0.025797404
0.10124887 0.10325599 0.025754316
0.10173616 0.10326983 0.025809361
0.10226514 0.10328566 0.025784371
0.10275102 0.10323635 0.025818489
0.10329226 0.10327276 0.025817288
0.10375056 0.10327996 0.025831049
0.10425976 0.10327039 0.025819274
0.10479768 0.10328184 0.025807258
0.10523394 0.10323638 0.025843788
0.10575028 0.10325439 0.025836315
0.10627428 0.10328425 0.025834659
0.10679272 0.10322546 0.025769735
0.10727155 0.10325507 0.02580611
0.10776019 0.10322724 0.025839588
0.1082469 0.10324792 0.025840109
0.10876875 0.10326173 0.025748404
0.10930351 0.10326248 0.02579627
0.10979339 0.10324406 0.025813369
0.11023033 0.1032652 0.02581811
0.11073472 0.10321209 0.025810231
0.11123671 0.1032918 0.025814777
0.11174602 0.10324005 0.025795452
0.11224356 0.10326877 0.025708906
0.11274833 0.10327572 0.025779184
0.1132367 0.10321017 0.025804522
0.11373476 0.10325217 0.025843039
0.11423531 0.10329317 0.025797708
0.11471014 0.10323433 0.025792487
0.11522343 0.10326681 0.025757305
0.11572679 0.10327618 0.02572115
0.11626877 0.10323953 0.025714375
0.11676111 0.10327864 0.025812542
0.11725265 0.10323878 0.025750089
0.11775851 0.10325813 0.025720824
0.11824539 0.10325274 0.025812464
0.11870301 0.1032512 0.025834586
0.11928817 0.10323054 0.025819093
0.11975958 0.10321341 0.02583695
0.1202525 0.10329938 0.025821311
0.12075579 0.10325254 0.025789842
0.12125209 0.10322525 0.025741512
0.1217515 0.10324789 0.025759567
0.12222977 0.10327191 0.025800087
0.12273632 0.10325073 0.025823163
0.12324736 0.10326587 0.025799913
0.12377355 0.10322677 0.025765348
0.12426235 0.10327614 0.025699042
0.12458535 0.10320491 0.025792297
0.076805986 0.10380939 0.025793577
0.077276438 0.10375115 0.025843628
0.077781469 0.1037641 0.02580224
0.078174755 0.10373047 0.02586381
0.078706667 0.10373211 0.025934184
0.079277441 0.10373385 0.025892325
0.079751864 0.10374058 0.025846273
0.080268793 0.1037584 0.025836896
0.080749169 0.10374325 0.025813954
0.081249401 0.10373863 0.025842397
0.081710018 0.10378239 0.025843492
0.082227968 0.10370925 0.025894804
0.082730114 0.10375746 0.025935085
0.083272867 0.10374102 0.025918653
0.083751537 0.10370335 0.025905835
0.084283493 0.10379523 0.025868362
0.084747925 0.1037767 0.025800971
0.085261703 0.10374002 0.025753761
0.085773692 0.1037259 0.025734613
0.086222686 0.10373073 0.025774026
0.086737819 0.10373164 0.025811285
0.087253436 0.10373776 0.025839118
0.08773502 0.10374717 0.025820961
0.088281825 0.10372445 0.025804844
0.088736899 0.10371386 0.025817931
0.089247234 0.10373446 0.025803668
0.089754716 0.10374202 0.025807677
0.090270631 0.10377377 0.025804041
0.090766557 0.10375347 0.025831619
0.091218494 0.10375466 0.02581357
0.091723092 0.10376035 0.025838602
0.092260048 0.10374727 0.025814611
0.092741974 0.10370838 0.025824871
0.093258873 0.10370884 0.025842128
0.093756683 0.10380655 0.02576831
0.094214804 0.10379516 0.025736937
0.094706252 0.10374167 0.025879443
0.095291205 0.1037365 0.02583597
0.095736749 0.10372625 0.025755536
0.096239693 0.10373555 0.025870007
0.09676972 0.10375912 0.025839251
0.097270131 0.10376985 0.025806468
0.097730704 0.10373194 0.025766348
0.098280676 0.10376497 0.025842978
0.098760001 0.103705 0.025828829
0.099255137 0.10373796 0.02572844
0.0996935 0.10378061 0.025809975
0.10026699 0.10373942 0.02575228
0.10082121 0.10379817 0.025762636
0.10123382 0.10376445 0.02575295
0.10175383 0.10374466 0.025786839
0.10226545 0.10375119 0.025760008
0.10274649 0.10375517 0.025811972
0.10326859 0.10377991 0.025834791
0.1038236 0.1037487 0.025820175
0.10427122 0.10375806 0.025822714
0.10470312 0.10376311 0.025831394
0.10526915 0.10372103 0.025819462
0.10573972 0.10375395 0.025825931
0.10628977 0.10376999 0.025811076
0.10679219 0.10371827 0.025783788
0.10724694 0.10374572 0.025813729
0.1077359 0.10371909 0.025831759
0.10827177 0.10374603 0.025814883
0.10874557 0.1037249 0.025779566
0.10925931 0.10371722 0.025782308
0.10972712 0.10375178 0.025800882
0.11026008 0.10372996 0.025797261
0.11074286 0.10371824 0.025786212
0.11126686 0.10380483 0.025821555
0.11178975 0.1037123 0.025764911
0.11225852 0.10375708 0.025768718
0.11275436 0.10373786 0.0257341
0.11326713 0.1037125 0.025811739
0.11374996 0.10374024 0.025805097
0.11430837 0.10377119 0.025795361
0.11481529 0.10375217 0.025752107
0.11527835 0.1037561 0.025721831
0.11575268 0.10373804 0.025741771
0.11623921 0.10372415 0.025771558
0.11671218 0.10378719 0.025787929
0.11728547 0.10371863 0.025717318
0.11772645 0.1037625 0.025754554
0.11827131 0.10374645 0.025804358
0.11878234 0.1037192 0.025811633
0.119245 0.10370182 0.025835363
0.11975111 0.10372974 0.02581236
0.12026235 0.10374925 0.025790481
0.12078736 0.10376016 0.025762616
0.1212384 0.1037228 0.025758501
0.12172335 0.1037286 0.025779882
0.12228489 0.10377959 0.025814919
0.12276909 0.10372473 0.025813924
0.1232613 0.10375731 0.025802383
0.12375996 0.10371917 0.025754819
0.12423011 0.10374918 0.02573761
0.12453827 0.10375299 0.025570918
0.07682088 0.10425872 0.025753567
0.077236608 0.10424384 0.025827687
0.077717297 0.10425696 0.025809962
0.078221887 0.10422584 0.025877208
0.078833066 0.10427917 0.025901986
0.079277068 0.10427141 0.025907548
0.079736255 0.1042478 0.025803169
0.080261521 0.10425048 0.025836153
0.080744237 0.10427821 0.025813701
0.081270963 0.10422859 0.025866471
0.08178997 0.10428415 0.025860291
0.082204632 0.10427719 0.025857968
0.082741983 0.10422377 0.025934607
0.083335266 0.10424772 0.025900774
0.083772182 0.10423859 0.025918605
0.084258616 0.10423688 0.025827751
0.084754214 0.10422131 0.025809374
0.085292332 0.10423851 0.025756406
0.085752413 0.10425974 0.025779787
0.086230494 0.10426185 0.025801778
0.086719878 0.10426404 0.02581845
0.087242573 0.10422351 0.025766009
0.087751254 0.10426953 0.025815388
0.088261962 0.10424658 0.025788249
0.088774212 0.10424405 0.025830587
0.089228719 0.10427859 0.025823487
0.089734823 0.10425339 0.025819482
0.090254836 0.10424183 0.025812306
0.090721533 0.10428493 0.025778398
0.091202594 0.10429365 0.025826612
0.091712572 0.1042512 0.025827728
0.092265517 0.1042674 0.02582312
0.092776768 0.1042546 0.025807023
0.093275778 0.10424637 0.025759416
0.093731537 0.10426901 0.02576899
0.094236307 0.10428051 0.025819391
0.09477517 0.10423287 0.025860369
0.095243819 0.10423832 0.025794463
0.095695719 0.1042542 0.025865819
0.096234806 0.1043146 0.025872137
0.096721061 0.10426696 0.02583142
0.097266585 0.10425623 0.025803417
0.097784445 0.10424178 0.025836913
0.098268256 0.10427042 0.025837187
0.098757811 0.10426142 0.025833815
0.099258937 0.10425977 0.025748311
0.099718109 0.10425559 0.025762159
0.10029571 0.10421668 0.025744313
0.10075743 0.1042423 0.02579446
0.10120293 0.1042785 0.025763676
0.10172088 0.10423946 0.025749423
0.10223215 0.10423462 0.025759744
0.1027364 0.10428465 0.025809117
0.10325987 0.10426174 0.025819125
0.10374951 0.10429222 0.025824696
0.10424998 0.10426373 0.02582486
0.10471994 0.10425188 0.025828421
0.10521972 0.10426113 0.025812222
0.10571669 0.1042503 0.025817705
0.10625915 0.1043184 0.025824567
0.10674395 0.10424712 0.025809621
0.10727362 0.10424002 0.025820028
0.10773816 0.10424225 0.025814474
0.10828269 0.10425051 0.025837298
0.10877892 0.1042598 0.025800047
0.10923532 0.1042748 0.025797272
0.10978297 0.1042818 0.025756758
0.11018444 0.10428139 0.025755716
0.11070547 0.10421705 0.025807139
0.11126444 0.1042496 0.025812471
0.11176174 0.10426676 0.025810527
0.1122695 0.10424781 0.025757443
0.11272597 0.1042871 0.025777953
0.11323587 0.10427242 0.025801329
0.11373018 0.10427472 0.025762333
0.1142548 0.10426178 0.02577615
0.11474685 0.1042322 0.025717093
0.11524074 0.10426985 0.025737982
0.11572182 0.10423512 0.025759757
0.11622567 0.10426571 0.025808079
0.11674756 0.10426006 0.025742741
0.11723406 0.10426053 0.025753891
0.11774058 0.10424145 0.025790196
0.11825065 0.1042654 0.025799068
0.11875447 0.10426785 0.025806012
0.1192564 0.10424914 0.025813848
0.1197615 0.10422394 0.02583025
0.12024235 0.10425249 0.025825704
0.12076464 0.10426693 0.025780629
0.12124579 0.10427804 0.025743918
0.12174348 0.10425872 0.02575811
0.12226143 0.10422268 0.025827222
0.12276338 0.10427562 0.025798127
0.12323754 0.10428327 0.025735302
0.12375351 0.10423309 0.025738221
0.12421462 0.10422099 0.025706632
0.12465084 0.10416202 0.02558656
0.076838337 0.10478904 0.025693525
0.077211425 0.1047291 0.025820028
0.077712014 0.10474063 0.025825616
0.078260243 0.10474482 0.025908388
0.078725062 0.10472763 0.025897805
0.079295047 0.10476778 0.025947062
0.079792798 0.10475652 0.025899818
0.080255859 0.10471646 0.025866462
0.08074908 0.10475457 0.025830431
0.081282578 0.10475197 0.025846211
0.081724301 0.10473433 0.02579991
0.082207531 0.10471889 0.02584938
0.082701296 0.10472917 0.025925748
0.083270505 0.10472737 0.025933789
0.083744682 0.10474933 0.025912
0.08422865 0.10473981 0.02579971
0.084720865 0.10471925 0.025811313
0.085271083 0.10470679 0.025752077
0.085746877 0.10472128 0.025749531
0.086222619 0.10475571 0.02580942
0.086740911 0.10477207 0.025845995
0.087275416 0.10469504 0.025782235
0.087723933 0.10478485 0.025818786
0.088246994 0.10470415 0.025835853
0.088717744 0.10477377 0.025824491
0.089228168 0.10478719 0.025805879
0.089716539 0.10475182 0.025814805
0.09023238 0.10471186 0.025805801
0.090727724 0.10477148 0.025793474
0.091274112 0.10477187 0.025828576
0.091746926 0.10475823 0.025838019
0.092256039 0.10474777 0.025840549
0.092734732 0.10475309 0.025822718
0.093224794 0.10472269 0.025795314
0.093684234 0.10475353 0.025785293
0.094272032 0.10477754 0.025837269
0.094756559 0.10471396 0.025825072
0.095230654 0.10470711 0.025829155
0.09578006 0.1047299 0.025848256
0.096249685 0.10478303 0.025845645
0.096730225 0.1047612 0.025833447
0.097260013 0.10473133 0.025831202
0.097717501 0.10471223 0.025852749
0.098270893 0.10478123 0.025848739
0.09875071 0.10472486 0.025851185
0.099304453 0.10475667 0.025799159
0.0997499 0.10473631 0.025737328
0.10029873 0.10472204 0.025756443
0.10075144 0.10471445 0.025767753
0.10125783 0.10470552 0.025723234
0.10174219 0.10473911 0.025778478
0.10226157 0.10472716 0.025763696
0.1027345 0.10482218 0.025769114
0.10324159 0.10476184 0.025801949
0.10373741 0.10475425 0.025825461
0.10424828 0.10475367 0.025827883
0.10474072 0.10473481 0.025839986
0.10529268 0.10475322 0.025844084
0.1057682 0.10473589 0.025807723
0.10625626 0.1048013 0.025831958
0.106758 0.10477591 0.025811214
0.10720436 0.10473347 0.025809258
0.10772698 0.10471662 0.025819421
0.10824966 0.10474183 0.02579654
0.10871673 0.10474977 0.025827659
0.10930997 0.10475822 0.025732901
0.10977673 0.10477962 0.025714735
0.11024757 0.10474815 0.025726391
0.11072954 0.10470148 0.025795745
0.11126529 0.10474188 0.025832176
0.11173829 0.10474361 0.025801681
0.11224742 0.10473057 0.025766173
0.11274368 0.1047639 0.025808224
0.11329862 0.10475924 0.025771879
0.11378211 0.10474016 0.02574493
0.11426707 0.10474564 0.025753194
0.11476974 0.10472555 0.025771601
0.1152631 0.1047179 0.02575553
0.11573657 0.10473582 0.025806678
0.11624403 0.10475021 0.025822537
0.11674191 0.1047411 0.025746634
0.11722445 0.10473281 0.025721708
0.11771534 0.10477006 0.025779475
0.11823341 0.10471715 0.025800886
0.11874458 0.10476538 0.025822423
0.11923382 0.10470679 0.025806153
0.11972184 0.10474057 0.025785573
0.12024972 0.1047376 0.025821755
0.12073933 0.10475548 0.025769668
0.12128308 0.10475951 0.025750995
0.12175012 0.10474027 0.025748108
0.1222378 0.10471654 0.025811076
0.12274417 0.10475697 0.025758581
0.1232565 0.10473911 0.025771057
0.12373695 0.10475404 0.025825754
0.12413684 0.10469566 0.025726058
0.12459838 0.10470933 0.025635105
0.076932855 0.1052119 0.025828904
0.077263668 0.1052679 0.025809081
0.077760048 0.105276 0.025825357
0.078267448 0.10524913 0.025916982
0.078760818 0.10532471 0.025917182
0.079170182 0.10524859 0.025935248
0.079717219 0.10523935 0.025923045
0.080229275 0.10525822 0.025852349
0.080702692 0.10524985 0.02583807
0.081209294 0.10524286 0.025817167
0.081749164 0.10527062 0.025798101
0.082260542 0.1052243 0.025853062
0.082735635 0.10530334 0.02592515
0.083207913 0.1053007 0.025918536
0.083753057 0.10523529 0.025871627
0.084252372 0.10526039 0.025790388
0.0847473 0.10525704 0.025795214
0.085281976 0.10524968 0.025775554
0.085742667 0.10527219 0.025797317
0.086201526 0.10527745 0.025817752
0.08670532 0.10526579 0.025850203
0.087256432 0.10525931 0.025747096
0.087741777 0.10525272 0.025769256
0.088239513 0.10524797 0.025813187
0.088743672 0.10528648 0.025853392
0.089223914 0.10525911 0.025812991
0.089738533 0.10525523 0.025802443
0.090239994 0.1052551 0.025806302
0.09073472 0.10524865 0.025825555
0.091241717 0.10525382 0.025831534
0.091734566 0.10531346 0.025829226
0.092256598 0.10530953 0.025838483
0.092733018 0.10525899 0.025825297
0.093263686 0.10525274 0.025752112
0.093759939 0.10526805 0.025826609
0.094288386 0.10527468 0.025817003
0.094743013 0.10520611 0.025809873
0.095184982 0.10522769 0.025824994
0.095764734 0.10526693 0.025852675
0.096254565 0.10525946 0.02581791
0.096730299 0.1052865 0.025845898
0.09725666 0.10525884 0.02582459
0.097745165 0.10521607 0.025836498
0.09823595 0.10526861 0.025834275
0.09875077 0.1052447 0.025831932
0.099236198 0.10527384 0.025766211
0.099721119 0.10523601 0.025798757
0.10025455 0.10526431 0.025761589
0.10072504 0.10527767 0.025806595
0.10122115 0.10526192 0.025736609
0.10169383 0.10523171 0.025794333
0.10223901 0.10525985 0.025779847
0.1027147 0.10526697 0.025722206
0.10321259 0.10522742 0.025775688
0.10371298 0.10525984 0.025815681
0.10425451 0.10526463 0.025828032
0.10474531 0.10528325 0.025830742
0.10528338 0.1052813 0.025795432
0.10574817 0.10524133 0.02575559
0.10626729 0.10526625 0.025813939
0.10672329 0.10525259 0.025795503
0.10723413 0.10524224 0.025813593
0.10776196 0.10526464 0.025817245
0.10828558 0.10523855 0.025817376
0.10878534 0.10527832 0.025802717
0.10926539 0.10523319 0.025709299
0.10975293 0.10528771 0.02572779
0.11027853 0.10525809 0.025745152
0.11073787 0.1052264 0.025813466
0.11118271 0.10527765 0.025794953
0.11171273 0.10526553 0.02576413
0.1122446 0.10524243 0.02577785
0.11275615 0.10530205 0.025808252
0.11326161 0.10521976 0.025753131
0.1137317 0.10524541 0.025759408
0.11424422 0.10527448 0.025758401
0.11475629 0.10523865 0.025785455
0.11525657 0.10527819 0.025796112
0.11573759 0.10525583 0.025830775
0.11624792 0.10526145 0.025817579
0.11673824 0.1052547 0.025760323
0.11725141 0.10521613 0.025761439
0.11775466 0.10528542 0.02574235
0.11823551 0.10529383 0.025782211
0.11873464 0.10526405 0.025761798
0.11923818 0.10527061 0.025808496
0.11974421 0.10522553 0.025776196
0.12025459 0.1052712 0.025766866
0.1207214 0.10528298 0.025736738
0.1212101 0.10528758 0.025769018
0.12169135 0.10526133 0.025792724
0.12224116 0.10525142 0.025766803
0.12273988 0.10526918 0.025745638
0.12323654 0.10524147 0.025800275
0.12373023 0.10526358 0.025804231
0.12419377 0.10526124 0.025693946
0.1245966 0.10530242 0.025693521
0.076994255 0.10552668 0.025752563
0.077310659 0.10573599 0.025743548
0.077770606 0.10575595 0.025798693
0.078236639 0.10575692 0.025890101
0.078735918 0.10582521 0.025936181
0.079212591 0.10570563 0.025975691
0.079757437 0.10573967 0.025891731
0.080244869 0.10575993 0.025819773
0.080724955 0.10572433 0.0258346
0.081269331 0.10573813 0.02582567
0.081737138 0.10574865 0.025804395
0.082202949 0.1057036 0.025853328
0.082764983 0.10577446 0.025885317
0.083239369 0.10583505 0.025853002
0.083768964 0.10576227 0.025838858
0.084272459 0.10572626 0.025817296
0.084728546 0.10578116 0.025825551
0.085273474 0.10569278 0.025804397
0.085735723 0.10578363 0.025821846
0.086249143 0.10573819 0.02583362
0.086731724 0.10576458 0.025797885
0.087269023 0.10573681 0.025781991
0.08770863 0.10575647 0.025792465
0.088228352 0.10573259 0.025788225
0.088708565 0.10576264 0.025806632
0.089276381 0.10573582 0.02584102
0.089759164 0.10572914 0.025846856
0.090268731 0.10574272 0.025802102
0.090745449 0.10573034 0.025772305
0.091304168 0.10577232 0.025805397
0.091789797 0.10579635 0.025817825
0.092242479 0.10577926 0.025829971
0.092741415 0.10576525 0.025794189
0.093297459 0.10573217 0.025792981
0.093744755 0.10573412 0.025789503
0.094229572 0.10572851 0.025813745
0.094745561 0.10574165 0.025819726
0.095188484 0.10569645 0.025868325
0.095706791 0.10576253 0.025881534
0.096224219 0.10575659 0.025842894
0.096710436 0.10576209 0.025834443
0.097271472 0.10573316 0.025824927
0.097757123 0.10573842 0.025824776
0.098279543 0.105733 0.025823215
0.098729283 0.10573321 0.025838872
0.099281989 0.10577083 0.025720615
0.099738948 0.10573214 0.025846468
0.10029476 0.10577203 0.025745187
0.10073714 0.10572924 0.025804149
0.10130205 0.10576066 0.025766062
0.10176584 0.10569042 0.025745047
0.1022976 0.10579705 0.025792303
0.10276051 0.10573173 0.025748607
0.10323063 0.10571171 0.025777338
0.10373001 0.10574715 0.025826531
0.10424984 0.10573956 0.025811952
0.10473872 0.10579851 0.025774106
0.10523193 0.10575833 0.025722997
0.10572908 0.1057376 0.025763609
0.10624943 0.1057438 0.025793152
0.10679131 0.10573738 0.025811777
0.10729007 0.10572029 0.025820579
0.10774716 0.10578036 0.02579391
0.10828067 0.10571747 0.025813337
0.10877395 0.10579532 0.025800588
0.10927264 0.10574526 0.025713313
0.10976695 0.10574299 0.025806895
0.11027683 0.10571323 0.025745278
0.11071555 0.10572559 0.025784822
0.11126164 0.10576372 0.025790062
0.11176663 0.10573578 0.025763601
0.11220182 0.10573933 0.02581344
0.11274225 0.1057587 0.025813939
0.11322855 0.10570596 0.025774918
0.11372501 0.1057388 0.025722586
0.11423317 0.10575628 0.025745485
0.11475363 0.1057562 0.025784137
0.11525538 0.10576842 0.025810456
0.11575708 0.10575225 0.025814915
0.11628171 0.10572388 0.0258245
0.1167938 0.10573251 0.025768777
0.11724929 0.10573809 0.025743488
0.11774843 0.1057603 0.025710031
0.11826266 0.10573469 0.025727449
0.11871967 0.10576743 0.025828265
0.11924935 0.10579147 0.025785482
0.11974175 0.10571299 0.025740311
0.12026932 0.10572722 0.025730511
0.12076446 0.10575137 0.025758317
0.12127177 0.1057324 0.025781423
0.12178435 0.10578088 0.025787767
0.12229489 0.10573392 0.025802633
0.1227506 0.10575306 0.025721334
0.12324071 0.10575351 0.025807289
0.12372482 0.10573595 0.025780788
0.12424215 0.10574033 0.025687162
0.12459137 0.10574607 0.025595138
0.077255897 0.10624709 0.025780478
0.077743158 0.10625486 0.025802854
0.07825727 0.10627058 0.025865478
0.078735292 0.10630766 0.025932746
0.079293564 0.10623515 0.025963267
0.07975553 0.10625295 0.025880983
0.080250673 0.10623506 0.025821902
0.080726378 0.10627288 0.025849033
0.081203081 0.10622038 0.02588488
0.081750169 0.10625222 0.025816727
0.082252569 0.1062476 0.025837136
0.082741834 0.10628595 0.025829703
0.083280019 0.10627741 0.025844211
0.083741881 0.10626348 0.025864743
0.084268443 0.10626054 0.02583969
0.084747173 0.10626242 0.025827916
0.08524143 0.10625678 0.025825828
0.08571323 0.10624091 0.025830051
0.086223446 0.10626116 0.025830546
0.086732581 0.10627978 0.025826955
0.087273344 0.10624685 0.025790129
0.087737538 0.10630999 0.025809292
0.088263035 0.1062388 0.02581913
0.088794842 0.10625911 0.02584134
0.089273803 0.10628141 0.025831176
0.089723349 0.10621894 0.025841745
0.09024135 0.10629606 0.025799356
0.090751678 0.10625397 0.025761016
0.091236636 0.10622463 0.025806371
0.091754757 0.10628236 0.025806436
0.092294283 0.10625979 0.025788359
0.09275385 0.10628029 0.025765467
0.093255237 0.10621035 0.025792811
0.093732662 0.10628912 0.025791371
0.094265424 0.10627887 0.025783285
0.094739817 0.10624248 0.025812492
0.095250338 0.1063189 0.025830803
0.095760785 0.10623786 0.025912143
0.096268877 0.10627496 0.025847025
0.096751861 0.10626629 0.025829675
0.097270064 0.1062725 0.025819782
0.097788274 0.10626848 0.025787069
0.098280303 0.10622328 0.025835317
0.098764703 0.10620105 0.025813207
0.099250913 0.10623582 0.025792452
0.099715762 0.10626809 0.025776625
0.10025889 0.10624349 0.025812423
0.10072253 0.10619754 0.025750643
0.10123809 0.10623654 0.025773274
0.10175582 0.10625932 0.02573882
0.10225981 0.10625792 0.02577566
0.10273658 0.106285 0.025739705
0.10324951 0.10621939 0.025797693
0.10376766 0.10626476 0.025816537
0.10426087 0.10621446 0.025827305
0.10477348 0.10627509 0.025709575
0.10527747 0.10623536 0.02573997
0.10578761 0.10624661 0.025726799
0.1062194 0.10624422 0.025762787
0.10672498 0.10627751 0.025823513
0.10727937 0.10623919 0.025796097
0.10778086 0.1062578 0.025801677
0.10831146 0.1062343 0.025814977
0.1087919 0.10627595 0.025745392
0.10927395 0.10627238 0.02569682
0.10974904 0.10624927 0.02573101
0.11027415 0.10625912 0.02578859
0.11079676 0.10624845 0.025719278
0.11128002 0.10625427 0.025753153
0.11176884 0.10628707 0.025828276
0.11220815 0.10625748 0.025840497
0.11267499 0.10624196 0.025822764
0.11321367 0.10622982 0.025744554
0.11372033 0.10624889 0.025739504
0.11425862 0.10624687 0.025755811
0.11475939 0.10627047 0.025769586
0.11526625 0.1062385 0.025810035
0.1157568 0.1062823 0.025830323
0.11620823 0.10623843 0.025835223
0.11673301 0.10625653 0.025795992
0.11724939 0.10626054 0.025768373
0.11771856 0.10626684 0.025746534
0.11819594 0.10624746 0.025775144
0.11872033 0.1062605 0.025829231
0.11926827 0.10624782 0.025736675
0.11974478 0.10625943 0.025727266
0.12025429 0.10624322 0.025740445
0.12075713 0.1062436 0.025725111
0.12127678 0.10627406 0.025797322
0.12175523 0.10629059 0.025792655
0.12224353 0.10625914 0.02580752
0.12275366 0.10628513 0.02573972
0.12320531 0.10627043 0.025773792
0.12374469 0.10625328 0.025770485
0.12428524 0.1062507 0.02569505
0.076487944 0.10680198 0.025999364
0.076891676 0.10686445 0.02599505
0.077396341 0.10676384 0.025822237
0.077806517 0.1067697 0.025807912
0.0781959 0.10675399 0.025842596
0.07874319 0.10678864 0.025903583
0.0792372 0.10675361 0.025958842
0.079824872 0.10675479 0.025865197
0.080256805 0.10673265 0.025814082
0.08072862 0.10670944 0.025831131
0.081271559 0.10670927 0.025886275
0.081753381 0.10676268 0.025823204
0.082233429 0.10677861 0.025779089
0.082702249 0.10676151 0.025823848
0.083255522 0.10673352 0.025883457
0.083776601 0.10677394 0.025833057
0.08422447 0.10678501 0.025828371
0.084730849 0.10674082 0.025814965
0.085259803 0.10674424 0.025822101
0.085777432 0.10671506 0.025823863
0.08629249 0.10672621 0.025805784
0.086769342 0.10681175 0.025829874
0.087257497 0.10675883 0.025773404
0.087771036 0.10677458 0.02582844
0.088262938 0.10675496 0.025837505
0.088750236 0.10673335 0.025827041
0.089235842 0.10676243 0.025822081
0.089750238 0.10672801 0.02581292
0.090248942 0.10675797 0.025785049
0.090729386 0.10674676 0.025803663
0.091271289 0.10675975 0.025807349
0.091749109 0.10671172 0.025798328
0.092247471 0.10674537 0.025771553
0.09271086 0.10673928 0.02573424
0.093268707 0.10671365 0.025741106
0.093748681 0.1067517 0.025746463
0.094196118 0.10673235 0.025779305
0.094728097 0.10674262 0.025841728
0.095250197 0.10676473 0.025839679
0.095701762 0.10672483 0.02586996
0.09629181 0.10676478 0.025855074
0.096737109 0.10672214 0.02580799
0.097219057 0.10674261 0.025809228
0.097707532 0.10678809 0.025816167
0.098227471 0.10671597 0.025804264
0.098764032 0.10673194 0.025816275
0.099304318 0.10672533 0.025802121
0.09976089 0.1067741 0.025823263
0.10022619 0.1067856 0.025840441
0.1007048 0.10668674 0.025779663
0.10123013 0.1067385 0.025767371
0.10172269 0.10677774 0.025764741
0.10226914 0.1067564 0.025777703
0.10279237 0.10676525 0.025760399
0.10327376 0.10669852 0.025823036
0.10373992 0.10674654 0.025798244
0.10425768 0.10671426 0.025785914
0.1047333 0.10678461 0.025730617
0.10523745 0.10673793 0.025763003
0.1057562 0.10674492 0.02573685
0.10624415 0.10674506 0.025784211
0.10672434 0.10675622 0.025797121
0.10725064 0.10673285 0.025814079
0.10773501 0.10672705 0.025807861
0.10823663 0.10675033 0.025768321
0.10872216 0.10674455 0.025727835
0.10923198 0.10675532 0.025750959
0.10974606 0.10672762 0.02577926
0.11025101 0.10674658 0.025813961
0.11072879 0.10673095 0.02580703
0.11124852 0.10674939 0.025820112
0.11173905 0.106778 0.025815008
0.11222137 0.10675813 0.025827348
0.11274259 0.1067311 0.025802581
0.11328021 0.10673914 0.025763536
0.11375653 0.10671632 0.025695259
0.11425295 0.10673337 0.02573226
0.11471864 0.10674084 0.025715975
0.11524022 0.1067692 0.025819182
0.11573718 0.10673146 0.025810696
0.11626467 0.10670053 0.025821516
0.11671507 0.10675937 0.025815958
0.11725177 0.1067328 0.025748422
0.11772314 0.10677392 0.025784433
0.11823303 0.10672995 0.025761511
0.11873601 0.10676127 0.025799366
0.11928511 0.10670223 0.025766201
0.11975905 0.10677463 0.025757868
0.12024789 0.10674115 0.02573278
0.1207674 0.10672999 0.025749091
0.12125718 0.10674968 0.025809588
0.12175155 0.10678852 0.025828032
0.12230346 0.10676907 0.025795953
0.12279654 0.10675592 0.025717866
0.12328389 0.10672802 0.02573988
0.12375951 0.10675821 0.02572383
0.1242626 0.10678189 0.025691481
0.12470961 0.10673641 0.025781279
0.076470748 0.10708868 0.02595751
0.076805092 0.10724781 0.025956834
0.077338263 0.10720419 0.025839122
0.077756174 0.10724652 0.025812777
0.078300342 0.10725094 0.025845123
0.078785531 0.107269 0.025875032
0.079292402 0.10727487 0.025939984
0.079809092 0.10730953 0.025834821
0.080284536 0.10731494 0.025836455
0.080731325 0.10717683 0.025837397
