# .PCD v0.7 - Point Cloud Data file format
VERSION 0.7
FIELDS x y z
SIZE 4 4 4
TYPE F F F
COUNT 1 1 1
WIDTH 1266
HEIGHT 1
VIEWPOINT 0 0 0 1 0 0 0
POINTS 1266
DATA ascii
0.013537937 -0.016861822 0.02568117
0.014043882 -0.016868137 0.02567954
0.014525777 -0.016865702 0.025676364
0.015012392 -0.016844504 0.025653798
0.01551856 -0.016807696 0.025655231
0.016019426 -0.016832175 0.025665846
0.016522484 -0.016862195 0.025708742
0.017092947 -0.016816881 0.025748767
0.01753257 -0.016799944 0.025738638
0.018059496 -0.016831394 0.025692018
0.018570757 -0.016841641 0.025749652
0.019051418 -0.016864477 0.02574065
0.019540757 -0.016793264 0.025742101
0.020064354 -0.016826617 0.025758568
0.02058397 -0.016788304 0.025866974
0.021048887 -0.016794449 0.025759866
0.021523889 -0.016834395 0.025744427
0.022274887 -0.016798509 0.025699325
0.022965977 -0.016974257 0.025605042
-0.023454925 -0.016124353 0.025525486
-0.022976965 -0.016102822 0.02567639
-0.022459341 -0.016118452 0.025726711
-0.021924892 -0.016091811 0.025726344
-0.021437291 -0.016119603 0.025682349
-0.020949773 -0.016069438 0.025746707
-0.020452062 -0.016117292 0.02572518
-0.01996571 -0.016098043 0.025719574
-0.019470863 -0.016105846 0.025687007
-0.018993726 -0.01608173 0.02572234
-0.018489333 -0.016054818 0.025718229
-0.017942168 -0.016136277 0.025825631
-0.017354174 -0.016031874 0.025870249
-0.016961003 -0.016027218 0.025712855
-0.016499532 -0.016070103 0.025751829
-0.015946306 -0.016065281 0.025723815
-0.015471296 -0.016060835 0.025755947
-0.014993809 -0.016055485 0.025687233
-0.014463688 -0.016049078 0.025701538
-0.013457273 -0.016062001 0.025734626
-0.012944117 -0.016076209 0.025707185
-0.012448716 -0.016032835 0.025706094
-0.011956917 -0.016038502 0.025706511
-0.011464168 -0.016022084 0.025743216
-0.010745585 -0.016070442 0.025840923
-0.010437681 -0.016037356 0.025724189
-0.0099463435 -0.016051279 0.025730915
-0.009469036 -0.016027562 0.025718434
-0.0089578079 -0.016026199 0.025659304
-0.008467475 -0.016256213 0.025658116
-0.0079456763 -0.016247967 0.025672626
-0.0074632955 -0.016033003 0.02570698
-0.0069245668 -0.016466897 0.025713034
-0.0064396537 -0.016471513 0.025738621
-0.0059714168 -0.016255474 0.025708089
-0.0054901913 -0.016456438 0.025649877
-0.0049241944 -0.016452065 0.025672575
-0.0044457102 -0.016445156 0.025640285
-0.0039706128 -0.016430747 0.025656493
-0.0034901758 -0.016487628 0.025647432
-0.0024290641 -0.016417831 0.025675418
-0.0019404341 -0.016463825 0.025691275
-0.001489053 -0.016458962 0.025686616
-0.00097406073 -0.016418431 0.025678275
-0.00048752793 -0.016479516 0.025634712
5.5100536e-06 -0.01640393 0.025663821
0.00051672687 -0.01641969 0.025645973
0.0010585211 -0.016445162 0.025652003
0.0015185219 -0.016407698 0.025638621
0.0020366278 -0.016438957 0.025654336
0.0025185905 -0.016412381 0.025659751
0.0030626068 -0.01643271 0.025721237
0.0035498459 -0.016405417 0.025749899
0.0040355064 -0.01642001 0.025740802
0.0045154104 -0.016388983 0.02570226
0.0050605228 -0.016424272 0.025732268
0.0055488041 -0.016405059 0.025703078
0.006046949 -0.016452106 0.02572966
0.0065536015 -0.016422851 0.025698647
0.0070429705 -0.01643182 0.025687784
0.0075487364 -0.016409967 0.02565901
0.0080245286 -0.016372297 0.025639134
0.0085243965 -0.016394019 0.025661781
0.0090737045 -0.016422136 0.025669971
0.0097696446 -0.016398095 0.025669888
0.01049426 -0.016365543 0.025718385
0.011054792 -0.016350437 0.025711942
0.011521288 -0.016356582 0.025669307
0.012015108 -0.016380735 0.025670135
0.012512953 -0.016369395 0.025698047
0.013052686 -0.016338209 0.025670698
0.013755224 -0.016373567 0.025685381
0.014503824 -0.016308876 0.025667801
0.015053124 -0.016309327 0.025684144
0.015517691 -0.016408689 0.025641743
0.016067328 -0.016377427 0.025634671
0.01656545 -0.01633429 0.02567861
0.017060393 -0.016363708 0.025694782
0.017552434 -0.016341219 0.025726808
0.018074401 -0.016270014 0.025739867
0.018523019 -0.016316574 0.025729049
0.019066066 -0.016331688 0.025746014
0.019567968 -0.01628059 0.025747431
0.020021731 -0.016316138 0.025751986
0.020506326 -0.016289588 0.025764581
0.021032682 -0.016282983 0.025756784
0.021561846 -0.016280621 0.025702203
0.022037046 -0.016272547 0.025755106
0.022725649 -0.016243748 0.025636744
-0.023090469 -0.015598606 0.025978178
-0.022895107 -0.015570978 0.025654893
-0.022447623 -0.015622291 0.025717352
-0.021918083 -0.015588718 0.025701592
-0.021261834 -0.01563647 0.02583972
-0.020945348 -0.015573617 0.025744487
-0.020479215 -0.01557729 0.025708634
-0.019955069 -0.015590986 0.025707725
-0.019480402 -0.015567991 0.025730245
-0.018957613 -0.015557378 0.025696453
-0.018476561 -0.015593468 0.025722517
-0.017799255 -0.015554212 0.025802717
-0.016953146 -0.015570605 0.025746347
-0.016470719 -0.015570836 0.025718991
-0.01596107 -0.015561455 0.025725499
-0.015455803 -0.015570369 0.025733035
-0.014953206 -0.015534476 0.025760593
-0.014496097 -0.015500589 0.025673492
-0.013931213 -0.015769614 0.025691178
-0.013455486 -0.015524145 0.025699366
-0.012972431 -0.015548264 0.025711935
-0.011946038 -0.015538653 0.025723727
-0.011463178 -0.01553456 0.025718348
-0.010761057 -0.015670935 0.025800904
-0.010351552 -0.015743539 0.025959041
-0.0099463081 -0.015503438 0.025725601
-0.0094702691 -0.015534253 0.025712587
-0.0084696067 -0.015510418 0.025671039
-0.006939962 -0.015969243 0.025705006
-0.0064666364 -0.015740972 0.025669321
-0.005929742 -0.015512941 0.025637224
-0.0054785316 -0.015978163 0.025676107
-0.0049817138 -0.015974134 0.025655279
-0.0044937483 -0.015937205 0.025645547
-0.0039550904 -0.015943842 0.025653377
-0.0034668827 -0.015989235 0.025636842
-0.0027388497 -0.015977189 0.025653945
-0.0019672993 -0.015947219 0.025643328
-0.0014640663 -0.015990471 0.02564065
-0.00092491379 -0.015940106 0.025632994
-0.00045280124 -0.015981313 0.025640631
5.7467725e-05 -0.015942026 0.025633991
0.00052745501 -0.015936984 0.025658378
0.0010258062 -0.015941344 0.025649982
0.0015412373 -0.015943646 0.025683304
0.0020625368 -0.015938206 0.025705336
0.002506943 -0.015943212 0.025716649
0.0030501746 -0.015949449 0.025710529
0.0035367813 -0.015916808 0.025727283
0.0040557012 -0.015920823 0.025695717
0.0045334185 -0.015912153 0.025745207
0.005041257 -0.015918173 0.025716046
0.0055288333 -0.015935773 0.025647847
0.0060721454 -0.015938243 0.025637355
0.0065449961 -0.015909808 0.0256564
0.0070441375 -0.015932871 0.025644874
0.0075235376 -0.01590129 0.025663821
0.0080658738 -0.015905054 0.025678797
0.0085467957 -0.015884427 0.025688123
0.0090516321 -0.015912263 0.025689106
0.0095759314 -0.015896467 0.025717083
0.010040712 -0.015864143 0.025731722
0.010542052 -0.015874172 0.025745707
0.011011345 -0.015913006 0.025688114
0.011512595 -0.015866222 0.02570927
0.012085656 -0.015887693 0.025667991
0.012774816 -0.015875649 0.025661096
0.013499815 -0.015862897 0.02566966
0.014063807 -0.015853362 0.025658432
0.014544806 -0.01582198 0.025650973
0.015058767 -0.015851552 0.025663355
0.015563485 -0.015860846 0.025645334
0.016007885 -0.015868282 0.025657261
0.016511176 -0.015842272 0.025674604
0.017088674 -0.015828077 0.025677901
0.01756461 -0.015844304 0.025711706
0.01804387 -0.015812706 0.025735535
0.018542383 -0.015796445 0.025714591
0.019057814 -0.015711246 0.025867652
0.01951262 -0.015752578 0.025864005
0.02000449 -0.015845872 0.025761466
0.020519737 -0.015789604 0.025751492
0.021247365 -0.015752252 0.025875743
0.021533648 -0.0158174 0.025737628
0.022061981 -0.015788162 0.025654672
0.022755133 -0.015781689 0.025616426
0.023414865 -0.01559727 0.025516061
-0.022905875 -0.015110179 0.025722243
-0.0224564 -0.015121943 0.025732419
-0.021967113 -0.015111969 0.025725657
-0.021231662 -0.015098238 0.025841683
-0.020988991 -0.015076797 0.025689501
-0.02048468 -0.015104715 0.025722144
-0.019747753 -0.015090904 0.025721319
-0.018959614 -0.015086357 0.025705865
-0.018458819 -0.015069329 0.025704479
-0.017802345 -0.015230396 0.02588596
-0.017451184 -0.015081405 0.025730159
-0.016960308 -0.015101391 0.025726154
-0.016447145 -0.015052998 0.025822412
-0.015957214 -0.015086469 0.025834117
-0.015480597 -0.015082092 0.025708079
-0.014991247 -0.015038876 0.02571938
-0.014235524 -0.015025738 0.025706347
-0.013502817 -0.015031965 0.025727857
-0.012960365 -0.015027927 0.025711477
-0.012469862 -0.015257768 0.025731493
-0.011951013 -0.015058423 0.025737418
-0.011469617 -0.015042611 0.025723312
-0.010422708 -0.015051608 0.025668217
-0.0094532799 -0.015034581 0.025643522
-0.0089459857 -0.015250478 0.025631387
-0.0084684333 -0.015019788 0.02562635
-0.0079515204 -0.015496 0.025634767
-0.0074790618 -0.015258173 0.025640272
-0.0069623217 -0.01549991 0.025645621
-0.0064861216 -0.015007625 0.025656212
-0.0059710485 -0.015024367 0.025642026
-0.0054690102 -0.015480021 0.025637314
-0.004984119 -0.015478794 0.025665618
-0.0044806395 -0.015245738 0.02565654
-0.0039502708 -0.015479478 0.025669266
-0.0034652334 -0.015423365 0.025635028
-0.0029586228 -0.015435554 0.025647277
-0.0024673229 -0.015454565 0.025619403
-0.0019286744 -0.015449035 0.025646437
-0.001438894 -0.015441202 0.025646644
-0.0009580272 -0.015423427 0.025623674
-0.00047988503 -0.015469272 0.025655169
5.4075266e-05 -0.015431843 0.025671359
0.00052076473 -0.015421389 0.025667926
0.0010031138 -0.015438668 0.025692374
0.0015363141 -0.015431902 0.025708877
0.0022717356 -0.015441544 0.025725827
0.0030829685 -0.01541579 0.025692863
0.003519766 -0.015404401 0.025700353
0.0040392065 -0.015382773 0.02568985
0.0045516822 -0.015394653 0.025686603
0.0050129718 -0.015410185 0.025708316
0.0055332268 -0.01541917 0.025639541
0.0060144477 -0.015430816 0.02564246
0.0065147867 -0.015385749 0.025627427
0.0070264079 -0.015366286 0.025646912
0.0075045833 -0.015367592 0.025661696
0.0080414917 -0.015375036 0.025663022
0.0085301418 -0.015421432 0.025664216
0.0090037957 -0.015365457 0.025673626
0.0095073944 -0.01541182 0.025659971
0.010073106 -0.015360227 0.025711335
0.010550269 -0.015376846 0.02571746
0.01126224 -0.015341412 0.025670027
0.012013539 -0.01533966 0.025638338
0.012516255 -0.015351144 0.025649527
0.013023852 -0.015379434 0.02565052
0.013536961 -0.015377084 0.025630897
0.014022203 -0.015309036 0.025632009
0.014520785 -0.015348921 0.025665823
0.015045447 -0.015358966 0.025668431
0.015573003 -0.015344407 0.025663234
0.016055884 -0.015375656 0.025665224
0.016501803 -0.015292278 0.025657838
0.017055592 -0.015332459 0.025642687
0.017534615 -0.015321117 0.025703745
0.018058866 -0.015306152 0.025689512
0.018525898 -0.015361559 0.025721822
0.019125421 -0.015250911 0.025851626
0.019524017 -0.015321051 0.025697606
0.020053959 -0.015328425 0.025710359
0.02050299 -0.015281987 0.025692256
0.021043442 -0.015316609 0.025722574
0.021558493 -0.015300967 0.025755348
0.022034017 -0.015291217 0.025705945
0.02255759 -0.015291344 0.025675824
0.023034334 -0.015297775 0.025598399
0.023514694 -0.015210459 0.025530819
-0.023285603 -0.014749931 0.02575729
-0.022941252 -0.014576222 0.025651224
-0.022242963 -0.01460045 0.025710676
-0.021505725 -0.014563435 0.025677226
-0.021002302 -0.014512801 0.025999263
-0.020989088 -0.014562039 0.025722044
-0.020498302 -0.014604779 0.025740115
-0.019831913 -0.014559375 0.02585355
-0.019305186 -0.014678364 0.02588349
-0.018755462 -0.014569335 0.025731854
-0.017757524 -0.014742593 0.02585461
-0.017492875 -0.014583091 0.025719181
-0.016958641 -0.014535902 0.025747649
-0.016467627 -0.014574911 0.025712157
-0.015992118 -0.01454043 0.025724715
-0.015491821 -0.014542683 0.025749456
-0.014975198 -0.014541473 0.02571024
-0.014449133 -0.014530753 0.025723731
-0.013952712 -0.014506336 0.025737476
-0.013372121 -0.014554719 0.025857773
-0.012954392 -0.014539623 0.025756583
-0.012228992 -0.014550057 0.025730601
-0.011488155 -0.014565933 0.025673721
-0.010816609 -0.014686641 0.025704725
-0.0099519286 -0.014747309 0.025659565
-0.0094691897 -0.014502118 0.025647087
-0.0079818089 -0.014996311 0.025623128
-0.0072445767 -0.01450208 0.025718432
-0.0069947536 -0.014989459 0.025650596
-0.0054849475 -0.014995503 0.02565323
-0.0049407692 -0.014953602 0.025696035
-0.0040317206 -0.014962449 0.025639592
-0.0035164203 -0.014954824 0.025651859
-0.0029475365 -0.014933973 0.02567252
-0.0024851058 -0.01495478 0.025671594
-0.0019912056 -0.014967112 0.025661796
-0.001250138 -0.014964987 0.025662944
-0.00049315114 -0.014947617 0.025685407
4.5843772e-05 -0.014918632 0.025670635
0.00052709773 -0.014991155 0.025698906
0.0012552128 -0.014960136 0.025683621
0.0020429096 -0.014972802 0.025708765
0.0025202432 -0.014935727 0.0257299
0.0030481704 -0.01493175 0.025672713
0.003561297 -0.014955088 0.025695303
0.0040480597 -0.014884599 0.025659323
0.004520583 -0.01489608 0.025675274
0.00504677 -0.014941056 0.025650095
0.0055183377 -0.014904699 0.025665963
0.0062343418 -0.014927251 0.025613191
0.0069806986 -0.014863746 0.02560316
0.0075106849 -0.014892974 0.025624665
0.0080044465 -0.014904969 0.025663622
0.00852127 -0.014923773 0.025659597
0.0090981433 -0.014900802 0.025666703
0.0095687788 -0.014891216 0.025677843
0.010056882 -0.014880336 0.025656451
0.010518595 -0.01490573 0.025697837
0.011060179 -0.014847249 0.025731934
0.011530762 -0.014868793 0.025635602
0.01204066 -0.0148261 0.025660897
0.012519538 -0.014883092 0.025653509
0.013053728 -0.014882272 0.025656726
0.013509901 -0.014882854 0.025628708
0.014066188 -0.014811131 0.025667371
0.014760697 -0.014871838 0.025666848
0.015495863 -0.014852118 0.025676278
0.016026871 -0.014865019 0.025693599
0.016514385 -0.014810354 0.025714686
0.017061416 -0.014795621 0.025711849
0.017533833 -0.014830814 0.025667025
0.018056633 -0.014846445 0.02567387
0.018574592 -0.014859076 0.025688723
0.019157808 -0.014840655 0.025860071
0.019540247 -0.014766985 0.025647033
0.020019908 -0.014800596 0.025640111
0.020535791 -0.014814654 0.02567533
0.021082774 -0.014803972 0.02569752
0.021549523 -0.014798961 0.025743376
0.022005191 -0.014795934 0.02570606
0.022517357 -0.014820863 0.02567606
0.023243604 -0.014773602 0.025617242
-0.023392003 -0.014230993 0.025543861
-0.022657046 -0.014098714 0.025779203
-0.021745283 -0.01413241 0.0258599
-0.021486856 -0.01407453 0.025709804
-0.020969691 -0.014082826 0.025729798
-0.020202963 -0.014187113 0.025774159
-0.019509951 -0.014058821 0.025838384
-0.018750671 -0.014087735 0.025718007
-0.017983932 -0.014127631 0.025738619
-0.017495686 -0.014061229 0.025722431
-0.016942907 -0.014078213 0.0257037
-0.016466746 -0.014089938 0.025718194
-0.015748795 -0.01406187 0.025724921
-0.014949109 -0.014056614 0.025737207
-0.014454435 -0.014058244 0.025706712
-0.013762502 -0.014038724 0.025714431
-0.013391474 -0.014161229 0.025975211
-0.012924423 -0.014086454 0.025831554
-0.012461306 -0.014039189 0.025733523
-0.011959983 -0.014038548 0.025719047
-0.011490716 -0.014059486 0.025619701
-0.010958591 -0.014038051 0.025644796
-0.010436775 -0.014033585 0.0256282
-0.0099633634 -0.014031244 0.025663463
-0.0094760172 -0.0140099 0.025651177
-0.0089774616 -0.014464019 0.025636388
-0.0084843077 -0.014256716 0.025639558
-0.0077451225 -0.014240116 0.025716936
-0.0073961364 -0.014261073 0.025963604
-0.0067212526 -0.014245186 0.025716191
-0.0059757112 -0.014242414 0.025692072
-0.0053252038 -0.014323537 0.025670551
-0.0045095617 -0.014445327 0.025657468
-0.0039294516 -0.014467795 0.025625231
-0.0034184621 -0.014455898 0.025654623
-0.0029516662 -0.014465692 0.025682658
-0.0024635929 -0.01444385 0.025659334
-0.0019815019 -0.014440039 0.025635688
-0.0014859904 -0.01448153 0.025641348
-0.00094898418 -0.014449538 0.025638068
-0.00045199599 -0.014475068 0.025629994
2.8048875e-05 -0.014445574 0.025643423
0.00051997113 -0.014456587 0.025635598
0.0012519157 -0.014403844 0.025620069
0.0020290215 -0.014445974 0.025655361
0.0025416748 -0.014399971 0.025656013
0.003057003 -0.014384269 0.025652943
0.0035399061 -0.01440378 0.025640519
0.0040502036 -0.014407651 0.02564393
0.0045542233 -0.014390428 0.025656451
0.0052460893 -0.014413082 0.025640441
0.0060114432 -0.014449841 0.025594233
0.0065370072 -0.014384279 0.025590122
0.0072519425 -0.014420942 0.025603391
0.0080337534 -0.014412537 0.025646705
0.0085423579 -0.014366706 0.025641792
0.0090902699 -0.014361297 0.025654435
0.0095461989 -0.014376831 0.025648978
0.010061843 -0.014391812 0.02564111
0.010758133 -0.014367783 0.025705807
0.011503802 -0.01434652 0.025647668
0.012028944 -0.014312656 0.025696382
0.012753859 -0.014353359 0.025736462
0.013276506 -0.014334707 0.02599982
0.013716298 -0.014307359 0.025829569
0.014250652 -0.014325727 0.025665145
0.015261238 -0.01435148 0.025673194
0.01603917 -0.014354022 0.02573381
0.016516976 -0.0142977 0.025746938
0.017011367 -0.014306555 0.025713157
0.017742103 -0.014319217 0.025654156
0.01848124 -0.014304774 0.025660593
0.019269355 -0.014315449 0.02585635
0.019537494 -0.014276463 0.025660574
0.020043394 -0.01430721 0.025692584
0.020519994 -0.01423098 0.025717037
0.021047059 -0.014288826 0.025720239
0.021520594 -0.014230227 0.025732815
0.022256311 -0.014304571 0.02571333
0.023212688 -0.014262381 0.025620647
-0.022750858 -0.01359449 0.025826707
-0.022488233 -0.01360769 0.02573593
-0.021758195 -0.013595952 0.025857497
-0.02147116 -0.013570395 0.025722746
-0.020924842 -0.013590431 0.025671886
-0.020456165 -0.013542491 0.025686232
-0.019734859 -0.013566836 0.02567406
-0.018738464 -0.013561646 0.025830895
-0.018308856 -0.013677431 0.025804408
-0.017957631 -0.013540115 0.025737841
-0.017486345 -0.013558544 0.025723394
-0.016930029 -0.013742832 0.025896559
-0.016325498 -0.01377385 0.025873795
-0.01574102 -0.013572318 0.025838187
-0.015464962 -0.013534455 0.025679974
-0.014871129 -0.01373346 0.025841335
-0.01449195 -0.013543198 0.025736297
-0.013989989 -0.013545743 0.025722176
-0.012955333 -0.013543034 0.025754094
-0.0124725 -0.01352612 0.025729567
-0.011994281 -0.013516173 0.025715953
-0.011486596 -0.013518084 0.025674142
-0.010939884 -0.013528906 0.025656354
-0.0094743334 -0.013513834 0.025645193
-0.0089537837 -0.01375165 0.025649097
-0.0084798252 -0.013508738 0.025631316
-0.0079702251 -0.013742423 0.025672294
-0.007222848 -0.013744208 0.025969891
-0.0065522711 -0.013861938 0.02596727
-0.0064541786 -0.013990005 0.025729122
-0.0049552717 -0.013996532 0.025655413
-0.0042408789 -0.013985713 0.02564894
-0.003521669 -0.01396311 0.025681516
-0.002976499 -0.013927002 0.025660571
-0.0024785795 -0.013965364 0.025676005
-0.0019545525 -0.013962134 0.025675287
-0.0014832017 -0.013974724 0.025629159
-0.00098302704 -0.013981896 0.025642266
-0.00047187228 -0.013948643 0.025645416
2.511614e-05 -0.013948559 0.02563226
0.00051022228 -0.013941683 0.025614157
0.0012572999 -0.013884115 0.025630297
0.0020412309 -0.013920184 0.025617201
0.002515112 -0.013940813 0.025661092
0.0030274997 -0.013893518 0.025632011
0.0035413546 -0.013884776 0.02566514
0.0042595882 -0.013908302 0.025649274
0.0049991133 -0.013940021 0.025622349
0.0055245226 -0.013892849 0.025609143
0.0060429117 -0.013889175 0.025612378
0.006530934 -0.013867688 0.025568491
0.0070682489 -0.013898382 0.025599089
0.0075550508 -0.01389708 0.02561041
0.008015112 -0.013902063 0.025607703
0.0085212607 -0.013888109 0.02564696
0.0090359524 -0.013865332 0.025640665
0.0097805355 -0.013897194 0.025649253
0.010529281 -0.013894081 0.025687043
0.011241585 -0.01387059 0.025693931
0.012054701 -0.013812966 0.025694335
0.012540447 -0.013874651 0.025734389
0.01306715 -0.01385978 0.025764227
0.013550768 -0.013821557 0.025825009
0.014001267 -0.013850056 0.025640897
0.014684664 -0.013863217 0.025855128
0.015055898 -0.013839149 0.025730517
0.015552871 -0.013878583 0.025733136
0.016034 -0.013851449 0.025736354
0.016505443 -0.013834339 0.025763316
0.017019304 -0.013825507 0.025763299
0.017520396 -0.013796503 0.025781976
0.018026013 -0.013828254 0.025702728
0.018526502 -0.013811406 0.025675526
0.019249354 -0.013818259 0.025721069
0.020007871 -0.01383327 0.025712289
0.020524111 -0.013814867 0.025722109
0.021035299 -0.013781062 0.025746847
0.021747503 -0.013800709 0.025695395
0.022481566 -0.013785648 0.025629532
0.023234148 -0.013803249 0.025577812
-0.023027379 -0.013139622 0.025509806
-0.022692114 -0.013108552 0.025827706
-0.022001253 -0.013100806 0.02566305
-0.021749334 -0.013131869 0.025824923
-0.021447401 -0.013164759 0.02597901
-0.020784505 -0.013139341 0.025845852
-0.02048528 -0.013041135 0.025684781
-0.019740984 -0.013080381 0.025722351
-0.01901415 -0.013102682 0.025703324
-0.018518968 -0.013156019 0.025852561
-0.017971136 -0.013032613 0.025696911
-0.017491108 -0.013086658 0.025721205
-0.016753873 -0.013046993 0.025720103
-0.016008787 -0.013212823 0.025951225
-0.015733596 -0.0130346 0.025735043
-0.014770451 -0.013187106 0.02581355
-0.013993463 -0.013038221 0.025723198
-0.013498569 -0.013260797 0.025722552
-0.012964533 -0.013095269 0.025674177
-0.012490015 -0.013026278 0.025747642
-0.01173489 -0.013035493 0.025725972
-0.010980258 -0.013052886 0.025681814
-0.010476171 -0.013236396 0.025699239
-0.0099757724 -0.013256149 0.025687778
-0.008977036 -0.013025644 0.025647612
-0.0082518831 -0.013017495 0.025665261
-0.0075137196 -0.013001202 0.025658142
-0.0072711222 -0.013260106 0.025685221
-0.0067520412 -0.013237834 0.025689516
-0.0064972686 -0.013495677 0.025721436
-0.0059852228 -0.013474504 0.025688412
-0.0053214189 -0.013320766 0.025641957
-0.0047309366 -0.013228483 0.025676044
-0.003850918 -0.013374163 0.025847882
-0.0034542219 -0.013254978 0.025834544
-0.0029445807 -0.01346799 0.025745299
-0.0024607347 -0.013480324 0.025706965
-0.0019711028 -0.013437369 0.025704121
-0.0014699588 -0.013455118 0.025659529
-0.00075523392 -0.013445534 0.02564938
2.3489818e-05 -0.013416342 0.025637226
0.00052195753 -0.013467615 0.025627572
0.0010618248 -0.013448128 0.025633598
0.0015366513 -0.013475723 0.025618268
0.0020637021 -0.013450024 0.025627758
0.0025361856 -0.013364722 0.025663737
0.0030629346 -0.013444584 0.025633233
0.003538945 -0.013406775 0.025653059
0.0040036459 -0.013419505 0.025625577
0.0047567491 -0.013371726 0.025636122
0.0054842662 -0.013412328 0.025610644
0.0062656873 -0.013392567 0.025614671
0.0070477962 -0.013386859 0.025607526
0.0077590421 -0.013388775 0.025619593
0.0084911743 -0.013371702 0.025636772
0.0089984704 -0.013415981 0.025654513
0.0094883498 -0.013372513 0.025631012
0.0099984016 -0.013385361 0.025652703
0.010501435 -0.013397331 0.025675578
0.011058068 -0.013381094 0.025714381
0.011520474 -0.013341765 0.02569427
0.012053978 -0.013362281 0.025666919
0.012529748 -0.013345535 0.025735838
0.01303701 -0.013356785 0.025742469
0.013545522 -0.013337908 0.025845274
0.014252441 -0.013333287 0.025732845
0.015019637 -0.013352405 0.025741572
0.015539972 -0.013279169 0.025710555
0.016028086 -0.013317892 0.025743166
0.016526751 -0.013325875 0.025735708
0.01702885 -0.013303575 0.025726615
0.017748212 -0.013307389 0.025722947
0.01848894 -0.013321342 0.025701484
0.019039595 -0.013305004 0.025674663
0.019552791 -0.013305125 0.025683708
0.020076446 -0.013319096 0.025688745
0.020574726 -0.013288144 0.02570946
0.021038726 -0.013315049 0.025724815
0.021505173 -0.013284983 0.025762022
0.022042206 -0.01328858 0.025673928
0.022746339 -0.013312263 0.025594655
0.023481373 -0.013266763 0.025548592
0.02400871 -0.01327138 0.025523005
-0.023453109 -0.012526348 0.025562188
-0.022921156 -0.012552029 0.025622871
-0.022281684 -0.012608916 0.025793187
-0.021955734 -0.012587216 0.025723936
-0.02149296 -0.012592076 0.025719283
-0.020745438 -0.012619039 0.025846407
-0.020165497 -0.012589004 0.025779242
-0.019525392 -0.012613361 0.025699817
-0.019437842 -0.012508574 0.025950952
-0.018759923 -0.012598819 0.025742101
-0.017940748 -0.012545302 0.025714716
-0.017497772 -0.012593815 0.025698492
-0.016982015 -0.012544659 0.025668416
-0.016488941 -0.012554873 0.02568049
-0.015988564 -0.01255792 0.025703903
-0.015240489 -0.01256638 0.025700571
-0.014533042 -0.012561222 0.02574002
-0.014306723 -0.012727486 0.025966508
-0.013831128 -0.012674756 0.02588035
-0.013173438 -0.012684035 0.025764413
-0.012529222 -0.012518456 0.025829924
-0.011970586 -0.012524412 0.02571659
-0.011240007 -0.012515782 0.025717193
-0.010492377 -0.012531976 0.025751716
-0.0094771404 -0.012981647 0.025710177
-0.008978365 -0.012515436 0.025709657
-0.005960552 -0.012974877 0.025631879
-0.0042383289 -0.012963789 0.025715457
-0.0035307468 -0.01299644 0.025695091
-0.0031438419 -0.012989026 0.025961192
-0.0029904495 -0.012946709 0.025686568
-0.0024746954 -0.01297754 0.025704164
-0.0019275513 -0.012958123 0.025693759
-0.0012312249 -0.012973893 0.025652619
-0.0005195993 -0.012946 0.025650678
1.3383338e-05 -0.012950713 0.025644556
0.00052402483 -0.012948494 0.025661215
0.0010315507 -0.012981469 0.025626432
0.0015272724 -0.012957805 0.025656773
0.0022567287 -0.012915699 0.025675315
0.0027583065 -0.012721701 0.025662914
0.0034857807 -0.01294333 0.025694601
0.0042579118 -0.012920242 0.025649793
0.0050265025 -0.012861348 0.025654973
0.0055070333 -0.012922568 0.025651939
0.0060081999 -0.012906835 0.02562155
0.0067776535 -0.012900571 0.025620949
0.0074823257 -0.012890868 0.025646156
0.0082597379 -0.012895318 0.025650524
0.0090067014 -0.012939924 0.025637662
0.0095021399 -0.012859933 0.025664562
0.010036913 -0.012919327 0.025654247
0.010516061 -0.012883954 0.025676742
0.011009283 -0.012870524 0.025707107
0.011736805 -0.012861598 0.025714383
0.012482969 -0.012864833 0.025724456
0.013142934 -0.012803337 0.025856039
0.013521241 -0.012879934 0.025719356
0.014040485 -0.012851742 0.025744863
0.014752371 -0.012833436 0.025735233
0.015490657 -0.012806626 0.025715519
0.016059441 -0.012852275 0.025673926
0.016539041 -0.012813894 0.025692161
0.017063558 -0.012827829 0.025729991
0.017560486 -0.012825175 0.025756577
0.018236432 -0.012799455 0.025747376
0.019016365 -0.01278828 0.02567062
0.019741651 -0.012812335 0.025659129
0.020490585 -0.01278078 0.025687397
0.021012058 -0.012823027 0.025741074
0.021758715 -0.012817088 0.025678407
0.022499906 -0.012782048 0.025602004
0.022984209 -0.012833713 0.02557227
0.02366419 -0.012816458 0.025556833
-0.023427393 -0.012156866 0.025656499
-0.022723123 -0.01209924 0.025821064
-0.021748904 -0.012113962 0.025731379
-0.020760003 -0.012117772 0.025733277
-0.019755546 -0.012112955 0.025712196
-0.018980514 -0.012115715 0.025717966
-0.018471919 -0.012095256 0.025736982
-0.017784594 -0.012089098 0.025844501
-0.01745224 -0.012074099 0.025711084
-0.016756028 -0.012042873 0.025672331
-0.01574775 -0.012065496 0.02565643
-0.014985247 -0.012081607 0.025686489
-0.014453202 -0.01205581 0.025703497
-0.013971602 -0.012034676 0.025720745
-0.01347696 -0.012059323 0.025667462
-0.012986617 -0.01202905 0.025724934
-0.012497584 -0.012041052 0.025727857
-0.011953661 -0.012058844 0.025735172
-0.011496785 -0.012004478 0.025713792
-0.010827666 -0.012174837 0.025847178
-0.01046479 -0.012004708 0.025688443
-0.0097358916 -0.012496153 0.025723856
-0.0094703436 -0.012027457 0.025716461
-0.0089648413 -0.012006358 0.025708394
-0.0084889615 -0.012258848 0.025688518
-0.0079697212 -0.012439983 0.025686158
-0.0074909348 -0.012456075 0.025655512
-0.0069681737 -0.012467552 0.025620099
-0.0064992364 -0.012481106 0.025662214
-0.0059833401 -0.012479511 0.025637524
-0.0052551348 -0.012234457 0.025658168
-0.0049523208 -0.012490043 0.025731126
-0.004488613 -0.012452321 0.025709124
-0.0037659563 -0.01224672 0.025725175
-0.0032318907 -0.012485764 0.025720164
-0.0025065164 -0.012437457 0.025698835
-0.0022485873 -0.012226034 0.025666751
-0.0015219292 -0.01200024 0.025625497
-0.001247696 -0.012455063 0.025642194
-0.00051420624 -0.012428232 0.025616869
0.00026148668 -0.012450641 0.025628516
0.0010589418 -0.012459159 0.025652796
0.001552582 -0.012407275 0.025633667
0.0020045775 -0.012442402 0.025655417
0.0032588677 -0.012425754 0.025654972
0.0040463037 -0.012436065 0.025644975
0.0045450199 -0.012380236 0.025636017
0.0050622951 -0.012377854 0.025636569
0.0057670074 -0.012370451 0.025642162
0.0064999843 -0.012394979 0.025621381
0.0072533595 -0.012399445 0.025648959
0.0079629775 -0.012393204 0.025629107
0.0084720105 -0.01237089 0.025620868
0.0092535615 -0.012358304 0.025636058
0.010022524 -0.012374626 0.025647689
0.010501142 -0.012374072 0.025692748
0.011034839 -0.012380049 0.02571406
0.011527493 -0.012375928 0.025724838
0.012019627 -0.012340785 0.02571776
0.012511011 -0.012353391 0.025740018
0.013020186 -0.012358886 0.02571485
0.013502497 -0.012335456 0.025744094
0.014002785 -0.012302911 0.025747508
0.014505458 -0.012346534 0.025730927
0.015023963 -0.012321178 0.025699109
0.01553384 -0.012315426 0.025697626
0.016022062 -0.012285259 0.025675038
0.016530221 -0.012340753 0.02570807
0.017030573 -0.012343029 0.02574354
0.017519958 -0.012304028 0.025757445
0.018258438 -0.012286204 0.025738409
0.019018726 -0.012268065 0.025676891
0.019521013 -0.012322484 0.0256502
0.020029271 -0.012322709 0.025671558
0.020513453 -0.012292785 0.025684949
0.021230245 -0.012286035 0.025727917
0.022274792 -0.012248438 0.025770312
0.023244593 -0.012245343 0.025540918
0.02379502 -0.012191002 0.025528666
-0.023390252 -0.011578203 0.025740968
-0.022726629 -0.011614043 0.02571426
-0.022400022 -0.011547158 0.025951358
-0.021746079 -0.011575074 0.025794268
-0.021016475 -0.01157222 0.025720684
-0.020530976 -0.011603509 0.025731839
-0.020174485 -0.011767453 0.025833521
-0.019730024 -0.011725891 0.025830027
-0.019001778 -0.011562525 0.025739435
-0.018504584 -0.011562918 0.025683397
-0.018001616 -0.011555543 0.02567696
-0.017342443 -0.01156479 0.025848785
-0.016752964 -0.011545189 0.025674608
-0.015730634 -0.011582463 0.025677327
-0.015012105 -0.011537387 0.025717564
-0.014512528 -0.011557692 0.025702413
-0.013761703 -0.011715204 0.025838263
-0.013474533 -0.011545097 0.025706911
-0.012944262 -0.011542118 0.025697844
-0.01216764 -0.011738345 0.025882429
-0.011642264 -0.01159947 0.025832109
-0.010744535 -0.011524002 0.025712959
-0.0099848229 -0.011752548 0.02571978
-0.0090022106 -0.011521062 0.02570975
-0.0085291639 -0.011541901 0.025721716
-0.0077504525 -0.011756179 0.025708079
-0.0070096403 -0.011994701 0.02569787
-0.0069741146 -0.011527785 0.025684116
-0.006333679 -0.011811362 0.025688848
-0.0057393638 -0.011726312 0.025702732
-0.0054844413 -0.011503722 0.025701933
-0.0048060142 -0.011780377 0.025802858
-0.003755054 -0.011732832 0.025689451
-0.0029898188 -0.011982036 0.025688367
-0.0019683307 -0.011967005 0.025669973
-0.00075923919 -0.011953636 0.025630053
1.9254396e-05 -0.011994114 0.025615975
0.00052060187 -0.011943703 0.025641421
0.0012407969 -0.011949711 0.025643725
0.0019863804 -0.011965765 0.025645582
0.0024925892 -0.011968974 0.025652299
0.0032439921 -0.011932133 0.025663376
0.0040326631 -0.01193651 0.025620405
0.004739196 -0.011914534 0.025635637
0.0054778503 -0.011866348 0.025695411
0.0062438734 -0.011906845 0.025679363
0.0070048338 -0.011915918 0.025626771
0.0075135571 -0.011895088 0.025620708
0.0080498224 -0.011911768 0.025633791
0.0085281273 -0.011869702 0.025664909
0.0092516672 -0.01186353 0.025645699
0.010039562 -0.011863432 0.025674252
0.010524279 -0.011921902 0.025713483
0.011015027 -0.011922747 0.025682988
0.011544894 -0.011882625 0.025684301
0.012249655 -0.011863801 0.025742501
0.012988123 -0.011868035 0.025741672
0.013496015 -0.011843022 0.025732031
0.014013362 -0.011833603 0.025704406
0.014511649 -0.011851226 0.025687519
0.015311976 -0.011843878 0.025804969
0.015950909 -0.011809135 0.025841471
0.016510412 -0.011830595 0.025696687
0.017255573 -0.011825325 0.025724679
0.018003128 -0.011831542 0.025706118
0.018752068 -0.011790791 0.025708131
0.019482788 -0.011838078 0.025667883
0.020252414 -0.011820344 0.025710125
0.021008302 -0.011799283 0.025720773
0.02175704 -0.0118073 0.02568116
0.022462575 -0.011803321 0.025698703
0.023239646 -0.011732914 0.025530333
-0.023310017 -0.011032853 0.025730997
-0.022745371 -0.011115466 0.025685702
-0.022005405 -0.011085098 0.025727734
-0.021507997 -0.011092888 0.025707165
-0.02100851 -0.011062772 0.025729993
-0.02052414 -0.011115089 0.025698841
-0.019987641 -0.011079819 0.025725553
-0.019444179 -0.01105867 0.025818219
-0.018751867 -0.011070083 0.025707435
-0.017780026 -0.011087737 0.025887242
-0.017231423 -0.011159133 0.025815807
-0.016976414 -0.011039686 0.025687126
-0.016234519 -0.011042832 0.025670178
-0.015512429 -0.011079249 0.025715161
-0.014756368 -0.011064166 0.025704762
-0.014331833 -0.011072787 0.025961902
-0.013760656 -0.011071814 0.025694381
-0.013071736 -0.011082201 0.025836214
-0.012510983 -0.011266157 0.02571377
-0.011764509 -0.011034255 0.02571936
-0.011004629 -0.011057517 0.025714409
-0.010733176 -0.011012748 0.025851581
-0.010007106 -0.011044362 0.025744529
-0.0092538856 -0.011273888 0.025702842
-0.008338362 -0.011220886 0.025791211
-0.0077514257 -0.011023737 0.025629541
-0.006591877 -0.011229552 0.02582211
-0.0054817204 -0.011038627 0.025687076
-0.0049765678 -0.011011349 0.025691925
-0.0044725155 -0.01123572 0.025695696
-0.0039788615 -0.011243118 0.02568559
-0.0029681039 -0.011420446 0.025664596
-0.0024847602 -0.01142496 0.025660198
-0.0019812863 -0.01143402 0.025639271
-0.0014922477 -0.011480033 0.025612151
-0.00074298214 -0.011463441 0.02564103
-2.0201085e-05 -0.011436669 0.025657933
0.00048671605 -0.011423858 0.025650557
0.0010227715 -0.011427822 0.025632521
0.0015367221 -0.011413918 0.025636347
0.0020401808 -0.011460009 0.025628371
0.0025039564 -0.011420935 0.025657963
0.0032540418 -0.011431451 0.025671512
0.0042475984 -0.011407942 0.02566734
0.0050126873 -0.011386149 0.025661604
0.0055082962 -0.011409417 0.025674937
0.006002713 -0.0114088 0.02567027
0.0065448927 -0.011409911 0.025634032
0.0070199976 -0.011396308 0.025636416
0.0075016916 -0.011397217 0.025621651
0.0082490165 -0.011395778 0.025682051
0.009261095 -0.011362901 0.025692509
0.0099941734 -0.011355025 0.025670163
0.010498423 -0.011400336 0.025684208
0.011021077 -0.011355435 0.025673006
0.011514547 -0.01133528 0.025694547
0.012021421 -0.011375576 0.025841342
0.012514818 -0.011395036 0.025717089
0.013250826 -0.011330311 0.025692955
0.013977814 -0.011335982 0.025694054
0.014499838 -0.011323651 0.025705144
0.015021596 -0.011362001 0.02573815
0.015669676 -0.011341251 0.025896532
0.016056625 -0.01135489 0.025689336
0.016527602 -0.011351858 0.025681183
0.017250966 -0.011316257 0.025725262
0.018007034 -0.011310635 0.025712999
0.018755578 -0.011329848 0.025668109
0.019474398 -0.011303114 0.02563796
0.020264057 -0.011292959 0.025705416
0.021016365 -0.011299511 0.025746219
0.021505341 -0.011259668 0.02566633
0.022048011 -0.011319912 0.025672741
0.022727277 -0.0112735 0.025524251
0.023274966 -0.011481969 0.025502536
-0.023365689 -0.010569685 0.025670061
-0.022700705 -0.010731998 0.025799507
-0.021754703 -0.010587728 0.025709428
-0.020989859 -0.0106208 0.025727997
-0.020254087 -0.010580122 0.025695972
-0.019847011 -0.010536168 0.025953155
-0.019361442 -0.010703561 0.025858728
-0.018991176 -0.010566395 0.025675885
-0.018489789 -0.01055341 0.025687603
-0.017744046 -0.010559814 0.025675915
-0.016959332 -0.01054357 0.02568119
-0.016475106 -0.010558773 0.025693618
-0.0159701 -0.010513986 0.025713433
-0.01525281 -0.010537973 0.025709238
-0.014537321 -0.010573598 0.025836963
-0.014025842 -0.0106822 0.025867507
-0.013542935 -0.010725707 0.025864108
-0.0127433 -0.010538613 0.025723901
-0.011994306 -0.010586509 0.025715277
-0.011477819 -0.010505144 0.025983177
-0.010978224 -0.010517324 0.025633346
-0.010289719 -0.010524252 0.025823414
-0.0097499341 -0.010761221 0.02572041
-0.0092502236 -0.010512004 0.025700089
-0.0079675904 -0.010517894 0.025634043
-0.0069636274 -0.010759531 0.025647318
-0.0059900023 -0.010986605 0.025714111
-0.0049708961 -0.010506776 0.025670031
-0.0039791968 -0.010512341 0.025602806
-0.003241857 -0.010961618 0.025673743
-0.0025202536 -0.010951823 0.025703775
-0.0020439567 -0.010971055 0.025661889
-0.0015293658 -0.010982368 0.025641955
-0.00097998837 -0.010971828 0.025649585
-0.00048348238 -0.010949449 0.025622826
0.0002399162 -0.010939674 0.025608856
0.0012431544 -0.010931659 0.025641624
0.0020402244 -0.010929449 0.025660263
0.0027460926 -0.010916317 0.025687516
0.0034900075 -0.010939178 0.025620796
0.0042521982 -0.010927664 0.025628615
0.0052491655 -0.010910015 0.025655687
0.006245126 -0.010915684 0.025630482
0.0070366478 -0.010893158 0.025636569
0.0075361105 -0.01090309 0.025685685
0.0080086133 -0.010882859 0.025699016
0.0087467795 -0.010899911 0.025684316
0.0094858846 -0.010865522 0.025683161
0.010250062 -0.010900931 0.02571518
0.01125112 -0.010874974 0.025718149
0.012241581 -0.010871386 0.025693435
0.012996675 -0.010865004 0.025683418
0.013489123 -0.010820075 0.02571648
0.014249577 -0.010841319 0.025745181
0.014985532 -0.010856733 0.025705211
0.015486151 -0.010849302 0.025759086
0.015976215 -0.010861815 0.025739249
0.016492497 -0.010866693 0.025674142
0.017144 -0.010720972 0.025846565
0.017755084 -0.0108245 0.025716232
0.018476132 -0.010839507 0.025629731
0.018970113 -0.010792329 0.025630338
0.01947603 -0.010817754 0.025689447
0.019995749 -0.01079797 0.025741333
0.020489298 -0.010838721 0.02572497
0.020757109 -0.010710252 0.025830748
0.021321362 -0.010743272 0.025897576
0.02192815 -0.01073542 0.025660364
0.02248176 -0.010837596 0.025531616
-0.023474198 -0.010086882 0.025618074
-0.022977669 -0.010111584 0.025694383
-0.022242114 -0.0101305 0.025680557
-0.0215213 -0.01009996 0.025722476
-0.020756025 -0.010113588 0.02572017
-0.019711377 -0.01014899 0.02578681
-0.018739607 -0.010082098 0.025707122
-0.018022202 -0.010067033 0.025685005
-0.01754823 -0.010088623 0.025680423
-0.016744874 -0.010063799 0.025684558
-0.016023329 -0.010041031 0.025729444
-0.01552615 -0.010043685 0.025697036
-0.014749298 -0.010038307 0.025710555
-0.014000733 -0.010046023 0.025709558
-0.013530901 -0.010044648 0.025715489
-0.01309423 -0.010214111 0.025832582
-0.012521294 -0.010034988 0.025649855
-0.01204107 -0.010062397 0.025651984
-0.011530988 -0.010256896 0.025643613
-0.010985661 -0.01019882 0.02586828
-0.010306875 -0.010187261 0.025770096
-0.0095448382 -0.01001789 0.025713522
-0.0085084196 -0.01044905 0.025633413
-0.007499788 -0.010478594 0.025647098
-0.0067382348 -0.010196762 0.025809271
-0.0064877002 -0.010494739 0.025698708
-0.0057533914 -0.010242868 0.025684532
-0.0054863691 -0.010495565 0.025706396
-0.004505232 -0.010433377 0.025622567
-0.0035247863 -0.01041012 0.025623849
-0.0030399642 -0.010478602 0.025632661
-0.0027545835 -0.010245329 0.025676353
-0.0020190612 -0.010496401 0.025654191
-0.0015122534 -0.010436312 0.025656821
-0.0010470343 -0.010465384 0.025628155
-0.00052288081 -0.010411561 0.025629565
-9.894371e-06 -0.010472732 0.025626628
0.0005421103 -0.010440888 0.025603229
0.0012468304 -0.010437091 0.025629219
0.0019869702 -0.010397059 0.025632361
0.0024461842 -0.01043471 0.025693918
0.0030156856 -0.010412625 0.025692353
0.0035002017 -0.010421321 0.025637662
0.0042499918 -0.010401206 0.025625009
0.0052470677 -0.010384629 0.025630232
0.0060417959 -0.010426715 0.025635416
0.0065201549 -0.010354823 0.025637938
0.0072408183 -0.01042039 0.02564558
0.0079499874 -0.010376102 0.025627073
0.0084901694 -0.010392847 0.025659194
0.009004131 -0.010378501 0.025640596
0.0095286388 -0.010370156 0.025646849
0.0100371 -0.010353005 0.025648052
0.010509333 -0.010427611 0.025694422
0.011013268 -0.010386353 0.025644517
0.011747142 -0.01034882 0.025673069
0.012497152 -0.010332597 0.02567254
0.0130282 -0.010346154 0.025703184
0.013760181 -0.01032909 0.025723085
0.014478728 -0.010398169 0.025696693
0.014960083 -0.010348869 0.025703643
0.0154613 -0.01034578 0.025708642
0.016033132 -0.010319646 0.025702879
0.016769204 -0.010315671 0.02572358
0.017474763 -0.010302718 0.025715625
0.01824371 -0.010315653 0.025693849
0.019190455 -0.010215312 0.025783129
0.019784564 -0.010231541 0.025886992
0.02028651 -0.010285388 0.025885763
0.020992143 -0.010304896 0.025833815
0.021529768 -0.010306825 0.025684789
0.022223845 -0.010321823 0.025749488
0.022993019 -0.01024294 0.025516672
0.023464063 -0.010095445 0.025501173
-0.023709126 -0.0095573291 0.02561263
-0.023047296 -0.0096246926 0.025653558
-0.022753801 -0.0095712841 0.025796477
-0.02217254 -0.0096691297 0.025889784
-0.021530682 -0.0095715597 0.025825869
-0.021005653 -0.0096187787 0.025729651
-0.020541275 -0.0095746955 0.025683448
-0.020184889 -0.0096709915 0.025823299
-0.019499395 -0.0095750801 0.02569581
-0.018962743 -0.0095576271 0.025685772
-0.018465193 -0.0095738973 0.02571992
-0.017742481 -0.0095549356 0.02570295
-0.016738275 -0.0095705148 0.025715005
-0.016017595 -0.0095097469 0.025725294
-0.015546229 -0.0095966468 0.025691997
-0.014747414 -0.0095449667 0.025708947
-0.014025329 -0.0095725255 0.0256877
-0.013661265 -0.0095993169 0.02594986
-0.013023644 -0.0095344596 0.025636761
-0.012524695 -0.0095187975 0.025636496
-0.012451135 -0.0099601625 0.025973553
-0.011966253 -0.0095238807 0.025670189
-0.010563938 -0.0097485483 0.025834361
-0.010081074 -0.0099778567 0.025947973
-0.0096258586 -0.0096275564 0.025815321
-0.0087489597 -0.0099917203 0.025696341
-0.0080261538 -0.0099958628 0.025656695
-0.0075307731 -0.0095199607 0.025671396
-0.0074994522 -0.0099950526 0.025615267
-0.0060296375 -0.0099969013 0.025665909
-0.0050655357 -0.0099998824 0.025649043
-0.0045275097 -0.0099527137 0.02561073
-0.0040161386 -0.009948398 0.025673155
-0.0033797491 -0.0098623224 0.025812414
-0.0025341986 -0.0099234357 0.02569294
-0.0017416737 -0.0099634044 0.025643323
-0.00096776173 -0.0099883033 0.025649393
-0.00047833659 -0.0099204369 0.025636878
0.000239652 -0.0099645928 0.025617983
0.001002541 -0.0099787377 0.02559275
0.0015166672 -0.0099213673 0.025622183
0.0020158195 -0.00993085 0.025639839
0.002511438 -0.0099440096 0.025643285
0.0032594281 -0.0099353334 0.025690801
0.0039711962 -0.0099205794 0.025657287
0.0044652629 -0.0098997047 0.025628636
0.0049853399 -0.009923812 0.02561803
0.005473204 -0.0098750228 0.025632827
0.0059940075 -0.0099272523 0.025613191
0.0065021599 -0.009869799 0.025637507
0.0070258551 -0.0099183507 0.025644325
0.0075002611 -0.0098890653 0.025669832
0.0082456246 -0.0098986514 0.025641287
0.0089685991 -0.0098375585 0.025659271
0.0094760126 -0.0099027166 0.025654422
0.0099787116 -0.0098422375 0.025736654
0.010487713 -0.009860835 0.025660113
0.011013522 -0.0098762102 0.025633633
0.011750358 -0.0098394714 0.025680296
0.012456194 -0.0098698493 0.025720512
0.012551237 -0.0096638612 0.025974354
0.013250264 -0.009855967 0.025721729
0.014004921 -0.0098688994 0.025693469
0.014752446 -0.0098537337 0.025688015
0.015471077 -0.0098679755 0.02571428
0.01583405 -0.0097159185 0.02588398
0.016527366 -0.0098310197 0.025688589
0.017234569 -0.0098293405 0.025721177
0.018006748 -0.0098221889 0.025684454
0.018746221 -0.0098122619 0.025724601
0.019486139 -0.00982216 0.025746094
0.019638656 -0.0098250732 0.025965599
0.020001551 -0.0097922031 0.025754448
0.020720771 -0.0098139746 0.025813334
0.021366946 -0.0098455241 0.025882363
0.021769095 -0.0095675979 0.02598642
0.022027284 -0.0097893812 0.025722932
0.022510679 -0.0097638909 0.02556595
0.023035457 -0.009769544 0.025518969
0.023553049 -0.0096804667 0.025532998
-0.02372412 -0.0091039687 0.025638649
-0.023276526 -0.0094502298 0.025966736
-0.022753667 -0.0091123227 0.025656864
-0.02203453 -0.009075026 0.025717977
-0.021548264 -0.0091461986 0.025829969
-0.021134909 -0.0092100203 0.025996592
-0.020751324 -0.0091079725 0.025720922
-0.020169288 -0.0093100127 0.025932323
-0.01975245 -0.0090829525 0.025710354
-0.019008741 -0.0090996232 0.025715889
-0.018517576 -0.0090680839 0.025703777
-0.018011291 -0.0090796715 0.025715791
-0.017506815 -0.0090720663 0.025716804
-0.017004471 -0.0090793315 0.025684981
-0.016504183 -0.00909374 0.025682032
-0.015752755 -0.0090637775 0.025706423
-0.015013577 -0.0090418812 0.025707163
-0.014514374 -0.0090878317 0.025699563
-0.013823626 -0.0092509827 0.025765961
-0.012811944 -0.0091648335 0.025797792
-0.012166152 -0.0091196783 0.025826991
-0.011702761 -0.0093108052 0.025791703
-0.011153719 -0.009334797 0.025903445
-0.01050612 -0.0090211434 0.025739051
-0.010158013 -0.0094670579 0.025878487
-0.0095608663 -0.0090282373 0.02569627
-0.0090209451 -0.00946387 0.025665576
-0.0085275285 -0.0092462525 0.025673915
-0.0080281552 -0.0094756242 0.025689851
-0.0079684658 -0.0090371259 0.025643179
-0.0070744599 -0.0094912164 0.025649663
-0.0065677054 -0.0094999773 0.025643904
-0.0062469905 -0.009016904 0.025634278
-0.0057461979 -0.0092516951 0.025602125
-0.0054800827 -0.0094887922 0.025641765
-0.0049939798 -0.0094727781 0.025607154
-0.0044852793 -0.0094775641 0.025669295
-0.0037605299 -0.0094577689 0.025686447
-0.0030636631 -0.0094286148 0.02582535
-0.0025197039 -0.0094427578 0.025698602
-0.0020159718 -0.0094786398 0.025708437
-0.0015231511 -0.009438918 0.025683591
-0.00074418529 -0.0094477041 0.02563208
6.1786268e-06 -0.0094740698 0.025619498
0.00074914435 -0.009422956 0.025596447
0.0015149512 -0.009408338 0.025639938
0.0020247661 -0.009422021 0.025611617
0.0027397824 -0.0094172657 0.025668742
0.0034603039 -0.009416244 0.025631508
0.0040145302 -0.0094170896 0.025650304
0.0045128977 -0.009369757 0.025650565
0.0050252676 -0.0094224494 0.025622671
0.0057562599 -0.0094074421 0.025619261
0.0064580701 -0.0094076348 0.025592649
0.0069246674 -0.0093757603 0.025634941
0.0074631432 -0.0094006052 0.025639443
0.0079712849 -0.009380389 0.025684288
0.0085152201 -0.0093866428 0.025650924
0.0092468262 -0.0093726339 0.0257088
0.010029547 -0.0093072094 0.025828801
0.010547304 -0.0093740122 0.025675634
0.011001665 -0.0093420567 0.025708016
0.011736181 -0.00936893 0.025741158
0.012319732 -0.0093272394 0.025877049
0.01325733 -0.0093192616 0.025722902
0.013952591 -0.0093239034 0.025701223
0.014468271 -0.0092665199 0.025827752
0.014992371 -0.0093646143 0.02566589
0.015479302 -0.009306496 0.02564468
0.015973734 -0.0093447054 0.02563362
0.016467705 -0.0093422672 0.025650833
0.017037692 -0.009396364 0.025696827
0.017744189 -0.0092730308 0.025699049
0.018394336 -0.0093761086 0.025859132
0.019255053 -0.0093389824 0.025733387
0.020252205 -0.0092938673 0.025709908
0.020988706 -0.0092860162 0.025715046
0.021349102 -0.0094742589 0.02597275
0.021774732 -0.0092480145 0.025801068
0.022405554 -0.0092992103 0.025616087
0.022967743 -0.0092769964 0.025553426
0.023431255 -0.0092617162 0.025568809
0.023752261 -0.0090230294 0.025595792
-0.023943186 -0.0086271372 0.025639396
-0.023219375 -0.008605157 0.025673227
-0.022534408 -0.0085725272 0.025816869
-0.022017572 -0.0085503682 0.025805557
-0.021541575 -0.0085642552 0.025691615
-0.02127558 -0.008748278 0.025938846
-0.020756239 -0.0085775629 0.025712747
-0.02003975 -0.0085479151 0.025702015
-0.019518401 -0.0086087035 0.025719464
-0.018762305 -0.0085682981 0.025710858
-0.01801442 -0.0085525084 0.025716854
-0.017261779 -0.0085619353 0.0256931
-0.016546287 -0.0085409703 0.025644645
-0.015990006 -0.0085916137 0.025678795
-0.015256125 -0.0085329451 0.025668003
-0.01452291 -0.0085375067 0.025684418
-0.01400997 -0.0085114343 0.02571038
-0.013522163 -0.0087550972 0.025699601
-0.013013464 -0.0085466839 0.025734589
-0.012530945 -0.0085196886 0.025682617
-0.011673504 -0.0086896783 0.025697105
-0.010830526 -0.0086995447 0.025696771
-0.010024012 -0.0087625971 0.025694575
-0.0090131722 -0.0087460577 0.025645372
-0.0074706003 -0.0089908857 0.0256167
-0.006978042 -0.0089961775 0.025611326
-0.0050318148 -0.0089881504 0.025643125
-0.0045416532 -0.0089787673 0.025624346
-0.0040228129 -0.0087467665 0.02565353
-0.0034961363 -0.0089819869 0.025700111
-0.0027550901 -0.0089543741 0.025703263
-0.0017614582 -0.0089670159 0.025655944
-0.0010015955 -0.0089530414 0.025625832
-0.00051286444 -0.0089641344 0.025600849
-3.0357158e-05 -0.008983084 0.025607256
0.00044658547 -0.0089342222 0.025608899
0.0012508899 -0.008929437 0.025623184
0.0019906457 -0.0089535825 0.025634283
0.0024866364 -0.0089210272 0.025635801
0.0030134793 -0.0089473315 0.025658006
0.0035128058 -0.0089060962 0.025637697
0.0042291814 -0.0089023374 0.025688395
0.0049921013 -0.00892598 0.025694117
0.00548549 -0.0089145862 0.02565442
0.006000909 -0.0088684512 0.025650529
0.0065092733 -0.0089465417 0.025642015
0.0070124567 -0.0088733286 0.025644608
0.0075005321 -0.0089100404 0.025654966
0.0082315067 -0.0088963062 0.025641697
0.0089853387 -0.0088721383 0.025687326
0.009712684 -0.0087901773 0.025873534
0.010239048 -0.0089044496 0.025713548
