# .PCD v0.7 - Point Cloud Data file format
VERSION 0.7
FIELDS x y z
SIZE 4 4 4
TYPE F F F
COUNT 1 1 1
WIDTH 1254
HEIGHT 1
VIEWPOINT 0 0 0 1 0 0 0
POINTS 1254
DATA ascii
0.01812703 -0.031855423 0.0037865909
0.017620821 -0.031856555 0.0037681728
0.017155031 -0.031878326 0.0037636892
0.016651949 -0.031830929 0.0037500756
0.016145449 -0.031911626 0.0037616086
0.015669771 -0.032011636 0.0037680916
0.015146259 -0.031963773 0.0038289046
0.014643089 -0.03185178 0.0038014608
0.014125412 -0.031848047 0.0037580417
0.013665533 -0.031875413 0.0037628231
0.013182646 -0.031904075 0.003777344
0.012678446 -0.031876996 0.0037581543
0.012141041 -0.031897321 0.0037771054
0.011671994 -0.031876825 0.0037931087
0.01118285 -0.031871237 0.0037802358
0.010727588 -0.031795911 0.0037077686
0.010127097 -0.031767707 0.0037599464
0.0095450748 -0.031783435 0.0038467518
0.009150885 -0.031860523 0.0038235881
0.0086451834 -0.031878259 0.0037803324
0.0081738029 -0.031893179 0.0037383104
0.0077047823 -0.031813283 0.0038118113
0.0072230333 -0.031849355 0.0037866535
0.0066442075 -0.031843487 0.0037768979
0.0061499192 -0.031824708 0.0037854596
0.0056562121 -0.03186949 0.0037529678
0.0051235459 -0.03184418 0.0038022143
0.0046955296 -0.031870455 0.0038010827
0.0041950047 -0.031882811 0.0037364471
0.0037199019 -0.031855535 0.0037905318
0.0031873407 -0.031875744 0.0038415801
0.0026868209 -0.031913694 0.0037949681
0.0021685855 -0.03195424 0.0037834102
0.0016072218 -0.031983409 0.0037354063
0.0011653081 -0.031954031 0.0037725884
0.00064854231 -0.031907126 0.0038182426
0.00013863016 -0.031870998 0.0037989083
-0.00028167944 -0.031831987 0.0037842165
-0.00081945863 -0.031836245 0.0037697165
-0.0013484815 -0.031844679 0.0037633041
-0.0018679635 -0.031845819 0.0037637153
-0.0023467168 -0.031909816 0.0037199019
-0.0027759266 -0.031949542 0.0037510181
-0.0033092801 -0.031929854 0.0037856861
-0.0038622515 -0.031938557 0.0037954845
-0.0043006497 -0.031980369 0.003751128
-0.0048583122 -0.032068003 0.0037416187
-0.0052784048 -0.031965118 0.0037769149
-0.0058134417 -0.031895727 0.0037199967
-0.0063417857 -0.031899527 0.0037190071
-0.0068637785 -0.031927686 0.0037819366
-0.0073692705 -0.031956576 0.0038103149
-0.0078108702 -0.031994078 0.0038066839
-0.0083181951 -0.032061841 0.0037764595
-0.0088020023 -0.032069471 0.0037664841
-0.0093436548 -0.032084275 0.0037740069
-0.0098590963 -0.032109424 0.003766421
-0.010295041 -0.032104708 0.0037516365
-0.010814972 -0.03206002 0.003774032
-0.011326954 -0.032033104 0.003793855
-0.011830782 -0.032078862 0.0037745405
-0.012306885 -0.03198649 0.0037224675
-0.01282961 -0.031966247 0.0037120043
-0.013429672 -0.031942897 0.0037691633
-0.013870209 -0.031941172 0.0037971633
-0.014341086 -0.031982135 0.0037348538
-0.014842797 -0.031995576 0.0037842786
-0.015311806 -0.032055341 0.0037784874
-0.015848756 -0.032080017 0.0037640103
-0.016405601 -0.032028843 0.0037420739
-0.016742693 -0.032002814 0.003939609
-0.018016987 -0.031933963 0.0037571797
-0.018952057 -0.031914417 0.0037582216
-0.019327125 -0.031986248 0.0037318903
-0.019849297 -0.032007955 0.0037599069
-0.020341303 -0.032056384 0.0037278668
-0.020780198 -0.032084048 0.0037731146
-0.021353303 -0.032057915 0.0038001616
-0.021839611 -0.032061215 0.0037497794
-0.022310358 -0.032042786 0.0037550619
-0.022788152 -0.032122023 0.0037455088
-0.02334024 -0.032276724 0.0037317974
-0.0052301441 -0.032361232 0.003671828
-0.014350216 0.032171443 0.0040793847
-0.014892942 0.032247908 0.0040180041
-0.015278585 0.032250248 0.0040472485
-0.015758529 0.032241508 0.0040454324
-0.016279398 0.032208651 0.0040206052
-0.016811028 0.032158811 0.0040168809
-0.01716632 0.032130066 0.0039776303
-0.022067975 0.032109663 0.0040550446
0.023077045 0.03195538 0.004144704
0.022703178 0.031986054 0.0040773773
0.022287346 0.031960234 0.0041155913
0.021608308 0.031892601 0.0040893042
0.021167662 0.031945277 0.0040473524
0.020777751 0.031974148 0.0040145572
0.020184349 0.031887174 0.003985438
0.019596979 0.031872749 0.0039890204
0.015151648 0.031841092 0.0041730846
0.014143597 0.031836305 0.004174755
0.013032785 0.031871997 0.0039978614
0.012643723 0.031942379 0.0040094852
0.012332862 0.031888094 0.0040465673
0.011712743 0.031948172 0.0040015392
0.011241222 0.0319805 0.0040518027
0.010708589 0.032007881 0.0040496467
0.010159574 0.031933364 0.0040877061
0.0097352779 0.031889599 0.003999786
0.009257555 0.031896196 0.0040548663
0.0087351091 0.031887453 0.0040217345
0.0081750462 0.031899847 0.0040421723
0.0076371259 0.031891584 0.0040581059
0.0072440174 0.031899482 0.0040278402
0.0067749182 0.031990219 0.0040159067
0.0061522736 0.031997927 0.0040107821
0.0056908969 0.03198611 0.0040498399
0.0051876637 0.031951513 0.0040601785
0.0047345636 0.031886432 0.0040723775
0.0042294445 0.031895731 0.004055554
0.0037610088 0.031815864 0.0040484131
0.0032330523 0.031864915 0.0040136194
0.0026472851 0.031839829 0.0040150406
0.0021907999 0.031864312 0.0040022735
0.0017158953 0.031919796 0.004007177
0.001176788 0.031874802 0.0040789819
0.00073821843 0.031823315 0.0040355506
0.00026836479 0.031897113 0.0040833429
-0.0002576164 0.03189861 0.0041149417
-0.00078732241 0.031865507 0.0040198667
-0.0013020495 0.031896975 0.0040534823
-0.0017475588 0.031903498 0.0041028983
-0.0022805561 0.031842887 0.0040951278
-0.0027568014 0.031908717 0.0040592495
-0.0032115532 0.031892426 0.0041097747
-0.0038104043 0.031919636 0.0040381299
-0.0043230532 0.031938918 0.0040797079
-0.0047750389 0.031985488 0.0040773959
-0.005217602 0.03195091 0.0040776394
-0.0057565188 0.031932767 0.0040965453
-0.0062719472 0.03191375 0.0040380536
-0.0068005007 0.031919055 0.0040325318
-0.0073148222 0.031912506 0.0040489524
-0.0077434378 0.03186094 0.0040174723
-0.008282044 0.03188568 0.0040220758
-0.0087744799 0.031907313 0.0040363134
-0.0092513133 0.031889983 0.0040634563
-0.0097516607 0.031965032 0.0040833326
-0.01029812 0.031872075 0.0040239352
-0.010781531 0.031841196 0.0040680314
-0.011289628 0.031844527 0.0040444443
-0.01177454 0.031862695 0.0040546972
-0.012323336 0.03183192 0.0040364061
-0.012765346 0.031783909 0.004009658
-0.013222843 0.031775903 0.0040366915
-0.013776394 0.031894878 0.0040550693
-0.014346726 0.031880237 0.0040494571
-0.014776299 0.031895198 0.0040345271
-0.015271574 0.031940453 0.0039931647
-0.015762717 0.031950958 0.004020541
-0.016313408 0.031931624 0.0040653818
-0.01675638 0.03190574 0.0040361355
-0.017285077 0.031914495 0.0040122308
-0.017808421 0.031893555 0.0040119234
-0.018274443 0.031902973 0.0040005194
-0.018756952 0.031885345 0.0040064622
-0.019258445 0.03188261 0.0040045013
-0.019726871 0.031868037 0.0039846762
-0.020258613 0.031871404 0.0040228581
-0.020801192 0.031852007 0.0039827041
-0.021299932 0.031834453 0.0040426357
-0.021768559 0.031768546 0.0040312647
-0.022274734 0.031864353 0.0040133437
-0.022721078 0.031795863 0.004019022
-0.023102652 0.031767614 0.0040348065
0.023107419 0.031493083 0.0040455735
0.022625504 0.031551398 0.0040613781
0.022178661 0.031637378 0.0040433132
0.021783037 0.031671844 0.004075828
0.021258129 0.031624887 0.0040592318
0.020713871 0.031721838 0.0040884786
0.020202009 0.031726282 0.0040780036
0.019730795 0.031706285 0.0040962514
0.019231925 0.03172164 0.0040964247
0.018724237 0.031750359 0.0040514842
0.01821525 0.031730797 0.0041036154
0.01769248 0.031689476 0.0041060769
0.017204627 0.031720221 0.0040820562
0.016756106 0.03169585 0.0040834281
0.016233882 0.031700544 0.0040556788
0.015730806 0.031699874 0.0040738732
0.015219423 0.031727366 0.0040707751
0.014728074 0.031704087 0.0040854071
0.014186218 0.031694036 0.0040323408
0.013666113 0.031727895 0.0040607532
0.013217973 0.031724498 0.004074343
0.012724385 0.031701382 0.0040332135
0.012258498 0.031693187 0.0040490939
0.011725618 0.031706337 0.0040935087
0.011152757 0.031705294 0.0040805889
0.010699825 0.03174004 0.0040599527
0.010218715 0.031714153 0.0040077548
0.0097106351 0.031688657 0.0040400042
0.0092508672 0.03160844 0.0040442711
0.0087063527 0.031512212 0.0040090401
0.0081815366 0.031630725 0.0040266486
0.0077559836 0.03161696 0.0040068445
0.007157525 0.031651378 0.0040541575
0.0067408131 0.031720366 0.0040695928
0.0061682006 0.0317058 0.0040316996
0.0057273577 0.031709623 0.0040523992
0.0052439822 0.031669118 0.0040779235
0.0045991521 0.031651605 0.0040889001
0.0042687156 0.031700734 0.0040091691
0.0031722113 0.031736489 0.0042193052
0.0028048959 0.031741537 0.0040319003
0.0023158193 0.031739999 0.0042281244
0.0016825469 0.031671308 0.0040408848
0.0012179329 0.031623326 0.0039776568
0.00069681741 0.031614557 0.0040269434
0.0002299156 0.031626299 0.0040246635
-0.00023341877 0.031656273 0.0040445416
-0.00077770697 0.031702194 0.0041432674
-0.0011863303 0.031708311 0.003967627
-0.0033938764 0.031700432 0.0040563443
-0.0037523373 0.031582881 0.0040762513
-0.0042275824 0.031559177 0.0040787486
-0.0047979038 0.031530742 0.004081747
-0.0052731498 0.031507049 0.0040842439
-0.0057259947 0.031513121 0.0040336628
-0.0063066697 0.031553533 0.0040082792
-0.0067546791 0.031592511 0.0040568714
-0.0071890866 0.031609334 0.0039995182
-0.0079413308 0.031671818 0.0039968998
-0.011687107 0.031610232 0.004058993
-0.012275822 0.031609125 0.0040786611
-0.022321539 0.031556342 0.0040614521
-0.022818513 0.031490758 0.0040304977
-0.023179051 0.031216048 0.0039769141
0.022114597 0.031353034 0.0040382775
0.021700976 0.03132996 0.0039119287
0.021364819 0.031306159 0.0039199661
-0.023401903 0.030850837 0.0040106457
-0.023727993 0.030814787 0.0040438254
0.023580663 0.030518411 0.0040835906
-0.023464305 0.030336106 0.0040135505
-0.023667142 0.030285206 0.0040429132
0.02373106 0.030195886 0.0040939851
-0.023442358 0.029881474 0.0040251315
-0.023582973 0.029791916 0.0040899599
0.023814939 0.029674821 0.0041176719
-0.023436837 0.029244564 0.0040232129
-0.02363609 0.029305877 0.0040504797
0.02381666 0.029144948 0.0040599848
-0.023382254 0.028756579 0.004089559
-0.023667106 0.028871743 0.0040253275
0.02383085 0.028657744 0.0041149156
-0.023397911 0.028344423 0.0039718552
-0.023663292 0.028328374 0.0040532686
0.023876347 0.028187072 0.0040961076
-0.023453258 0.027802149 0.0040178131
-0.023652656 0.027772313 0.0040095327
0.024006404 0.027648641 0.0041631116
0.02389814 0.027650481 0.0040626987
-0.023412177 0.027276948 0.0040459451
-0.023700241 0.027325833 0.0040568542
0.02408395 0.027225029 0.0041434309
0.023895534 0.027132874 0.0041123363
-0.02336093 0.026801741 0.0040530954
-0.023737099 0.026774539 0.004062559
0.024056679 0.02661676 0.0040995623
0.02387996 0.026704837 0.0040641865
-0.023345809 0.026350554 0.0041002706
-0.023764882 0.026291698 0.0040772073
0.024026141 0.026197666 0.0041469526
0.023894306 0.026141224 0.0040884158
-0.023693718 0.025837556 0.0041241799
0.024008103 0.025856685 0.0042491555
0.023904953 0.025638767 0.0040955483
-0.023625424 0.02526693 0.0040970701
0.023899766 0.025138907 0.0041023614
-0.023682958 0.024735741 0.0040699863
0.024022061 0.024758335 0.0042811516
0.02385742 0.024659656 0.0040871901
-0.023682665 0.024335394 0.0040586805
0.023852574 0.024126584 0.0041021416
-0.023671208 0.023821756 0.0040936838
0.02379968 0.023669122 0.0040809745
-0.023680914 0.023327895 0.0040657637
0.023760837 0.02314651 0.004072933
-0.02367991 0.022863314 0.0040980489
0.023769241 0.022662502 0.0040636458
-0.023652412 0.022335051 0.0040601674
0.023753377 0.022160854 0.0040848651
-0.023661643 0.021823576 0.0041194856
0.023746215 0.021615358 0.0040803798
-0.023684222 0.02132028 0.0040588006
0.023746775 0.021167342 0.004079171
-0.023677969 0.02086751 0.0040652752
0.023766108 0.020656781 0.0041650538
-0.023695564 0.020399176 0.0040720575
0.023721537 0.020175671 0.0041059605
-0.023693252 0.019852815 0.0041149845
0.023709398 0.019678622 0.0041239494
-0.023754161 0.019309316 0.0040966696
0.023717528 0.019180298 0.004119948
0.023549372 0.019013159 0.0039984901
-0.023698643 0.01880591 0.0040892879
0.023713332 0.018698391 0.0041145706
0.023548376 0.018792685 0.004318553
-0.023675261 0.0183296 0.0040661884
0.02372586 0.01819971 0.004095275
-0.023636051 0.017821841 0.0040564942
0.02369372 0.017656978 0.0041008899
-0.023624552 0.017327817 0.0041168556
0.023684852 0.017148618 0.004086609
-0.023684507 0.016835863 0.004156651
0.023672141 0.016718155 0.0041238558
-0.023602251 0.01625406 0.0041211946
0.023689099 0.016154559 0.0041278536
-0.023617584 0.015819307 0.0040574968
0.023714002 0.015612615 0.0041061244
0.023572464 0.015894497 0.0040450487
-0.023668308 0.015308835 0.0040923934
0.023741741 0.015164964 0.0041147619
0.023548204 0.015138111 0.0040553585
-0.023691162 0.01475509 0.0041125184
0.023824483 0.014654976 0.0041548777
0.023558196 0.014746497 0.0040630042
-0.023701161 0.014350082 0.0040924186
0.023787642 0.01414214 0.0041680746
0.023505807 0.014190691 0.0040448094
-0.023743141 0.013849163 0.0040762885
-0.02394069 0.013761888 0.0043212711
0.023812339 0.013619401 0.004133096
0.023436092 0.013620989 0.0040918589
-0.023744544 0.013332912 0.0041428306
-0.023934837 0.013327701 0.0040660365
0.023806229 0.013148421 0.0041218232
0.023401773 0.013055563 0.0040756832
-0.023364838 0.013055242 0.0039966274
-0.023671141 0.012751517 0.0041395468
-0.023929102 0.012903366 0.0041249553
0.023804665 0.012662237 0.0041594892
0.023416288 0.012663747 0.0041948194
-0.02366893 0.012318899 0.0041015958
-0.023906345 0.012247444 0.0041396362
0.023789007 0.012131478 0.0041582808
0.023394316 0.011914776 0.0042050821
-0.023680517 0.011833515 0.0040900218
0.023779348 0.011625343 0.0041563427
0.023497377 0.011598206 0.00399921
-0.023713009 0.011360087 0.0040928191
0.023757732 0.011150841 0.0041668117
-0.023710031 0.010853865 0.0040826639
0.023756538 0.010649724 0.0041545536
-0.023733051 0.010313552 0.0040657339
0.023803238 0.01013416 0.0041791247
0.023603443 0.010252854 0.0040651271
-0.023734897 0.0098298108 0.0041300487
0.023811197 0.0096307294 0.0041483804
0.023574144 0.0098457532 0.0040748399
-0.023754708 0.0092926472 0.0041014915
0.023797631 0.0092211524 0.0041751303
-0.023710866 0.0088287247 0.0040856018
-0.023878263 0.0087511158 0.0041499352
0.023808978 0.0086633665 0.0041899574
-0.023742346 0.0083508883 0.0041134367
0.023769584 0.0081306705 0.0041840393
-0.023758661 0.007825396 0.0041157785
-0.023885291 0.0075999419 0.0039394232
0.023734557 0.007635301 0.0042163525
-0.023779677 0.0072903829 0.0040609022
0.023721896 0.0071483981 0.0041987444
-0.023788869 0.0069019697 0.0041428911
0.023712784 0.006634268 0.0041515715
0.023640757 0.0065337461 0.0042302916
-0.023786644 0.0063637141 0.0041092024
0.023729913 0.0060909148 0.0040863897
0.023624163 0.0061961585 0.0042498531
-0.023806414 0.0058760345 0.0040772771
0.023717118 0.0056265015 0.0040960629
0.02360208 0.0056601623 0.0042208708
-0.023774367 0.0053992812 0.0040637418
-0.023877524 0.0053170482 0.0041360427
0.023788732 0.0051374072 0.0041824011
0.02360576 0.0051353765 0.0041616121
-0.023715787 0.0047757961 0.0041658645
-0.023918295 0.004785588 0.0041392148
0.023840539 0.0046456209 0.0041636904
0.023597911 0.0046755169 0.0041372948
-0.023703206 0.0042906473 0.0041185962
-0.023985216 0.0042857379 0.0041581825
0.023878332 0.0041548191 0.0042076907
0.023558807 0.0041602445 0.0041604741
-0.023685141 0.0037833408 0.0041503534
-0.023984039 0.0038088337 0.0041203997
0.023813605 0.0036145775 0.0041712029
0.023578864 0.0036182015 0.0041746576
-0.023669839 0.0033490204 0.0040861028
-0.023990752 0.003350456 0.0041310061
0.023762098 0.003126221 0.0042343009
0.023567513 0.0032164291 0.0041688788
-0.023663819 0.0028823731 0.0041761524
-0.023930622 0.0028299433 0.0041050059
0.023729281 0.0026281562 0.0041526891
0.023604132 0.0026502199 0.0041740676
-0.023709772 0.0023338301 0.004128953
-0.023836849 0.0022990087 0.0040666251
0.023683919 0.0020624751 0.0041964343
0.023610897 0.0021538155 0.0041748257
-0.02371553 0.0018719648 0.0041373232
0.023647035 0.0016866472 0.0041649742
-0.023716347 0.0013289244 0.0041601416
0.023719426 0.0010888986 0.004196872
0.023563061 0.00117769 0.0041659297
-0.023716982 0.00083277217 0.0041473154
0.023708099 0.00067061564 0.0041867155
0.023589734 0.00064184004 0.0042152801
-0.023659369 0.00032262708 0.0041277539
-0.023844905 0.00029498152 0.0041170651
0.023730839 7.7626959e-05 0.0041809846
0.023616605 0.00019550501 0.0041853003
-0.023703126 -0.00022633787 0.0041692322
-0.023850819 -5.0600735e-05 0.0039118789
0.023740739 -0.00031864466 0.0041865325
0.023607118 -0.00033113195 0.0041943416
-0.023680702 -0.00068446802 0.0041372082
-0.023831507 -0.00075576873 0.0043026861
0.023736926 -0.00082826044 0.004220135
0.023623664 -0.0009060686 0.0041546589
-0.023629731 -0.0012109492 0.0041765887
-0.023806715 -0.0012499094 0.0041489466
0.023785107 -0.0013424281 0.0040465333
0.023655064 -0.0013399789 0.0041912966
-0.023638891 -0.0017467927 0.0041592093
-0.023838194 -0.0017411832 0.0041513331
0.023762815 -0.0018568264 0.0040856041
0.023641575 -0.0018453822 0.0042501674
-0.023624409 -0.0021851137 0.0041606007
-0.02386779 -0.002226288 0.0041895974
0.023732545 -0.0024538694 0.0041327346
0.023645062 -0.0023915328 0.0041573485
-0.023677027 -0.0026905118 0.0041770893
-0.023910001 -0.0027429201 0.0042005093
0.023732381 -0.002828646 0.0040512243
0.023657877 -0.0029104415 0.0041271457
-0.023676636 -0.0031449762 0.0041073067
-0.023866456 -0.0031909337 0.0041634934
0.023746464 -0.0033588249 0.0040434729
0.023666065 -0.0033019469 0.004159864
-0.023697626 -0.0036772972 0.0041538654
-0.023918711 -0.0037163415 0.0041847392
0.023744235 -0.0039600255 0.0041860184
0.023623846 -0.0038786593 0.0042156046
-0.023691516 -0.0041854591 0.0041560316
-0.023825811 -0.0041508023 0.0041503273
0.023739375 -0.004381828 0.0041662077
0.023611901 -0.0043999446 0.0042370744
-0.023679776 -0.0047094161 0.0041222069
-0.023830626 -0.0046905405 0.0041952748
0.023788845 -0.0048725391 0.0041906419
0.023644056 -0.0047737313 0.0042156437
-0.02372076 -0.0051913345 0.0041769273
-0.023825027 -0.0052548298 0.0041240454
0.023794275 -0.005392971 0.0042231847
0.023609718 -0.0053241742 0.0042146109
-0.023703834 -0.0057096425 0.0041348934
-0.023846421 -0.005699059 0.0041381908
0.023769602 -0.0057484447 0.0043775081
0.023589756 -0.0059405235 0.0042420942
-0.023705445 -0.0062425314 0.0041541648
-0.023873784 -0.006179288 0.0042851013
0.023754762 -0.0062963543 0.0042476705
0.023557458 -0.0063613476 0.0042138826
-0.023629688 -0.0067230598 0.0041888962
-0.023828968 -0.0066501894 0.0042829188
0.023544455 -0.0068383934 0.0042191488
-0.023674505 -0.0071669482 0.0041815187
-0.023877161 -0.0070018363 0.0042609945
0.023512501 -0.0073705581 0.0042044735
-0.023679743 -0.0076689301 0.0041512139
-0.02379871 -0.0078470316 0.0042913547
0.023468224 -0.0078789284 0.0042215222
-0.023645874 -0.0082048299 0.0042213616
-0.023776006 -0.0081423558 0.0042870939
0.023532532 -0.0083334344 0.0042134547
-0.023675658 -0.0087688407 0.0042260885
-0.023779519 -0.0088163791 0.0040545906
0.023553327 -0.0088856928 0.0042034597
-0.023665659 -0.0091085611 0.0041691535
-0.023884149 -0.0091438312 0.00413458
0.02357946 -0.0093378229 0.0042106016
-0.023666564 -0.0096671395 0.0041829995
-0.023823958 -0.0097319847 0.0041342601
0.023644697 -0.0098709688 0.0042212266
-0.023658244 -0.010177041 0.0042034895
-0.023853458 -0.010197475 0.0041599041
0.023680596 -0.010390207 0.004223804
-0.023695054 -0.010631606 0.0042037037
-0.023800779 -0.010790459 0.0040248493
0.023677196 -0.010839128 0.0042393431
-0.023731384 -0.011181256 0.0042628995
-0.023748241 -0.011161635 0.0041052685
0.023802007 -0.011598425 0.0043139285
0.023625085 -0.011413521 0.0042149839
-0.023678683 -0.01163375 0.004094257
-0.023739129 -0.011661461 0.0042150337
0.023783043 -0.011880064 0.0042391205
0.02359627 -0.011921449 0.0042048348
-0.023619419 -0.012104684 0.004234782
-0.023739941 -0.012186734 0.004109168
0.023858748 -0.012353226 0.0043138284
0.023567304 -0.012362604 0.0042104283
-0.023560833 -0.012659552 0.0041487096
-0.023746857 -0.012652817 0.0042518307
0.023825871 -0.012838662 0.0041795736
0.023510206 -0.012833483 0.0042978581
-0.023581864 -0.013221232 0.0042025307
-0.023771666 -0.013219904 0.0042427732
0.023897765 -0.013359734 0.0042253123
0.023413211 -0.01335874 0.0043040179
-0.023575613 -0.013679518 0.0043106638
-0.02374311 -0.013703976 0.0042054411
0.023893688 -0.013849345 0.0041997889
0.023374459 -0.013811222 0.0042551188
-0.023564933 -0.014241736 0.0042085061
-0.023790026 -0.014191159 0.0042201565
0.023887899 -0.014381554 0.0041948911
0.023366587 -0.014318223 0.0042680288
0.023281343 -0.014332563 0.0042109159
-0.023652984 -0.014656431 0.0041420208
-0.023827519 -0.014642578 0.0042557279
0.023807133 -0.014905525 0.0041820621
0.023377305 -0.014659119 0.0042501031
0.023265051 -0.014893741 0.0042190058
-0.023663457 -0.015147938 0.0041876379
-0.023853298 -0.015179159 0.0042460226
0.023536747 -0.015329319 0.0042249826
0.023292491 -0.015130508 0.0041211951
-0.02369404 -0.015633317 0.0042356486
-0.023809779 -0.015688296 0.0042103436
0.023519356 -0.015872955 0.0042356467
-0.023659045 -0.016112821 0.0043383879
-0.02378929 -0.016180757 0.0041449685
0.023551522 -0.016392607 0.0042688712
-0.023654871 -0.016703382 0.0042562559
-0.02379299 -0.016669128 0.004223505
0.023589965 -0.016829705 0.0042344597
-0.023626234 -0.01734714 0.0042119585
-0.023766622 -0.017178234 0.0042228503
0.023632487 -0.017312011 0.004227398
-0.023656348 -0.017667128 0.0042865258
-0.023790358 -0.017734936 0.0042072879
0.023898266 -0.018064851 0.0043457719
0.023611026 -0.017863667 0.0042396151
-0.023761 -0.01823014 0.0042030485
0.023917746 -0.018396802 0.0042211446
0.023674242 -0.018319519 0.0042140037
-0.023638139 -0.018641742 0.0043593291
-0.023798307 -0.018683556 0.0041760304
0.023880733 -0.018775074 0.0041612443
0.023695104 -0.018820144 0.0042377976
-0.023774289 -0.019150784 0.0042060609
0.023683602 -0.019354224 0.0042302567
-0.023645483 -0.019749332 0.0042614467
-0.023795577 -0.019619055 0.0042014322
0.023842053 -0.019697502 0.004463356
0.023643997 -0.019829664 0.0041802851
-0.023645889 -0.020162247 0.0043769823
-0.02379239 -0.02014197 0.004192248
0.023592647 -0.020354098 0.0042405725
-0.023640271 -0.020755574 0.004253509
-0.023825655 -0.020633129 0.0042636581
0.023577511 -0.020855157 0.0042499909
-0.023656009 -0.021031307 0.00415225
-0.023800872 -0.021209724 0.0042729094
0.023526639 -0.021361383 0.0042700833
-0.023782343 -0.021718085 0.0042331126
0.023572566 -0.02186621 0.0042906399
-0.023791954 -0.022132162 0.0042091357
0.023640323 -0.022318013 0.0042907055
-0.02382932 -0.022699019 0.0041961968
0.023674261 -0.022863533 0.0042847907
-0.023848772 -0.023161972 0.0041829478
0.023699971 -0.023417417 0.0042722542
-0.023861866 -0.023670327 0.0042274427
0.023872355 -0.023756409 0.0042333771
0.023691373 -0.023870103 0.0043195058
-0.023845136 -0.024131164 0.004257998
0.023890018 -0.024216417 0.0042174952
0.023751214 -0.024357356 0.0041922973
-0.023844518 -0.024611499 0.0042616497
0.023896273 -0.024759347 0.0042341901
0.023758167 -0.024800967 0.0042229258
-0.023529189 -0.025107248 0.0042609791
-0.023837712 -0.025161684 0.0042788335
0.023891248 -0.025385657 0.0042835362
0.023700235 -0.025279952 0.0042306366
-0.023552656 -0.025634611 0.0042359899
-0.023803864 -0.025672453 0.0042665554
0.023898354 -0.025972566 0.0044833422
0.023669597 -0.025851993 0.004273192
-0.023731647 -0.02612729 0.0042525847
0.023897711 -0.026559763 0.0044611902
0.023673853 -0.02638847 0.0042591351
-0.023789462 -0.02667797 0.0042406861
0.023916418 -0.02702366 0.0044454895
0.023673873 -0.026829265 0.0042505157
-0.02384766 -0.027170841 0.0042470475
0.023646025 -0.027339904 0.0042779641
-0.023795959 -0.027680971 0.0042359512
0.023709232 -0.02785698 0.0042795702
-0.023557914 -0.028242856 0.0043140142
-0.023843313 -0.028158963 0.0042505269
-0.024149572 -0.028329065 0.0040858849
0.0240796 -0.028432734 0.0043052752
0.023640934 -0.028362155 0.0042622457
-0.023534629 -0.028655697 0.0043216292
-0.023836359 -0.028682107 0.0041939593
-0.0241128 -0.028778965 0.0042258031
0.023974881 -0.028829144 0.0043080286
0.023661636 -0.028859302 0.0042523453
-0.023586318 -0.029058633 0.0041759494
-0.023838755 -0.029187229 0.004256424
0.023913683 -0.0293868 0.0042449455
0.023728795 -0.029296272 0.0042780112
-0.023807984 -0.029701529 0.0042100558
0.02402791 -0.0298192 0.0042393678
0.023600286 -0.029811295 0.0042938627
-0.023493305 -0.030210253 0.0042918948
-0.023730654 -0.030148806 0.004253333
0.024170704 -0.030359708 0.0042323968
0.023579694 -0.030326376 0.0042833211
-0.023407362 -0.030686118 0.004264846
-0.023816243 -0.030727115 0.0042623491
0.024447201 -0.031008268 0.0042710546
0.024336951 -0.030731933 0.0041969307
0.023461524 -0.030660519 0.0043577841
0.023229782 -0.030875279 0.0042397575
-0.023064699 -0.031409014 0.0043785442
-0.023349805 -0.031226173 0.0042808843
-0.023828164 -0.031115517 0.0042538568
0.023166236 -0.031332497 0.0042901724
0.022785695 -0.031468011 0.0042698858
0.022292031 -0.031606037 0.00420829
0.021105079 -0.031586412 0.0042161886
0.02061571 -0.031526446 0.0042224368
0.020141488 -0.031467587 0.004250261
0.019614119 -0.031450607 0.004280386
0.019105954 -0.031443398 0.0042143073
0.018710632 -0.0314014 0.0042930329
0.01811162 -0.031610366 0.0041007837
0.017708044 -0.031573683 0.0041118478
0.01730502 -0.031537291 0.004122918
0.016471887 -0.031646516 0.0041461429
0.010110538 -0.031675309 0.0042305649
0.0096001923 -0.031626061 0.0043115043
0.0091958959 -0.031653401 0.0043013087
0.0088956077 -0.031701207 0.0040930402
0.007089315 -0.031703781 0.0042469017
0.0066047627 -0.031665009 0.004293493
0.0061600544 -0.031656418 0.0042048926
0.0056464192 -0.031652182 0.0042185886
0.0052542947 -0.031716518 0.0042589614
0.0042032949 -0.031728998 0.0042604627
0.0026158756 -0.03171023 0.0042241975
0.0021215936 -0.031672701 0.0042819362
0.0015867259 -0.031603452 0.0042856536
0.0011770558 -0.031629581 0.0042449804
0.00063452311 -0.031699393 0.0041086115
0.00026707677 -0.031758524 0.0043276045
-0.0004095654 -0.031760514 0.0041361549
-0.00078380434 -0.031759199 0.0042036991
-0.0013770573 -0.03175531 0.0041738809
-0.0019027758 -0.031741153 0.0042360527
-0.0023119529 -0.031757701 0.0042270375
-0.002880279 -0.031768139 0.0042654783
-0.0035546529 -0.031792399 0.0044073425
-0.0048080538 -0.03171454 0.0042679645
-0.0053268587 -0.031797521 0.0044432548
-0.0057581607 -0.031776056 0.0044497112
-0.0064235455 -0.031790826 0.0044644894
-0.0069159986 -0.03179213 0.0042215716
-0.0074298084 -0.031777419 0.0043316665
-0.0078293867 -0.031754162 0.0042869151
-0.0082501471 -0.031770702 0.0042972248
-0.0087660439 -0.031781543 0.00440956
-0.011851393 -0.031812161 0.0042747958
-0.012383257 -0.031757779 0.0042329496
-0.012781965 -0.031750083 0.0042343484
-0.013315618 -0.031752989 0.0042331419
-0.013847146 -0.031790666 0.0042375517
-0.014280183 -0.031831875 0.004021999
-0.01481102 -0.031823132 0.0042752968
-0.015335048 -0.031729765 0.0043071127
-0.015798986 -0.031742938 0.0042533795
-0.016376019 -0.031814091 0.004273355
-0.016882589 -0.03177147 0.004269057
-0.017412029 -0.031787354 0.0042623207
-0.017836459 -0.031804189 0.0042310571
-0.018358139 -0.031815108 0.0042179534
-0.018900793 -0.0317205 0.0042224368
-0.019301288 -0.031756878 0.0042832359
-0.019734081 -0.03182983 0.0041747633
-0.02034666 -0.031883705 0.0042813336
-0.020851679 -0.031841215 0.0042770477
-0.021359272 -0.031807989 0.004276949
-0.021860829 -0.031731095 0.0042658597
-0.022374855 -0.031769201 0.0042323596
-0.022832852 -0.031658012 0.0042026462
-0.023279469 -0.031661257 0.0042777108
-0.023867525 -0.03148637 0.0043913322
0.023058865 -0.031816505 0.0043200888
0.022645969 -0.031673528 0.0043159318
0.022118747 -0.031764001 0.0042642527
0.021626817 -0.031799242 0.0042907493
0.021174559 -0.031801078 0.0043146894
0.020697726 -0.031882741 0.0043048309
0.020114347 -0.031978924 0.0043071574
0.019682698 -0.031972971 0.0043181311
0.019199606 -0.031845327 0.0042932127
0.018736994 -0.031869546 0.0042613097
0.01814127 -0.031820718 0.0042887153
0.017620962 -0.031834543 0.0042746402
0.017155729 -0.031859346 0.0042689079
0.016681086 -0.031800408 0.0042679724
0.016134288 -0.031907577 0.0042546173
0.015677962 -0.031856447 0.004245156
0.015136376 -0.031996284 0.004278441
0.014632674 -0.031849965 0.0042974222
0.01414779 -0.031856764 0.0042716493
0.013623968 -0.031839598 0.0042524817
0.013158814 -0.031825576 0.004297649
0.01264568 -0.031860366 0.0042847092
0.012173105 -0.031878967 0.0042740786
0.011675112 -0.031833414 0.0042916737
0.011196678 -0.031819455 0.0042756954
0.010656662 -0.03178909 0.0042200284
0.010180535 -0.031789977 0.0041875266
0.0096475193 -0.031799667 0.0042261388
0.0091211321 -0.031876549 0.0042537032
0.0086530726 -0.031825799 0.0042789695
0.008157203 -0.031890623 0.0042462298
0.0076780533 -0.031848986 0.0042951615
0.0071646599 -0.031826619 0.0043240893
0.0066769496 -0.031849053 0.0042683561
0.0060960934 -0.031950496 0.0042486517
0.005653189 -0.031832624 0.0042767222
0.0050961147 -0.03187627 0.0042847465
0.00464621 -0.031887662 0.0042786244
0.0041742194 -0.031869724 0.0042443639
0.0036959501 -0.03191727 0.0042854664
0.0031904632 -0.031919967 0.0042986539
0.0026447852 -0.031924538 0.0042541302
0.0021304314 -0.032005496 0.0042588906
0.0016534999 -0.032001723 0.0042642104
0.0011608377 -0.03197008 0.0042454354
0.00065036025 -0.031917889 0.0043236837
0.00013285829 -0.031869914 0.0042994982
-0.00029267417 -0.031853609 0.0042884704
-0.0007888074 -0.031821787 0.0042798012
-0.0013077171 -0.031839125 0.0042747688
-0.0018257988 -0.031820029 0.0042735236
-0.0022757319 -0.03185723 0.0042799935
-0.0027810005 -0.03187415 0.0042738058
-0.0033260738 -0.031875897 0.0042773755
-0.0038810573 -0.031894356 0.0042337258
-0.0043726251 -0.031925309 0.0042225732
-0.0048208744 -0.031991098 0.0042409599
-0.0052388688 -0.031969219 0.0042879945
-0.0058079949 -0.031887274 0.0042327745
-0.0063385135 -0.031903554 0.0042308257
-0.0068393797 -0.031963911 0.0043043075
-0.0073456634 -0.031978667 0.0042428761
-0.0077729383 -0.032070249 0.0043123923
-0.0083345715 -0.032062154 0.0043065157
-0.0088019613 -0.032075509 0.0042634932
-0.0093832547 -0.032034792 0.0042689461
-0.0098752463 -0.032037601 0.0042662336
-0.010300714 -0.032038927 0.0042675431
-0.010807968 -0.03202077 0.0042740507
-0.011369975 -0.032037962 0.0042714057
-0.011853715 -0.032056808 0.0043012602
-0.0122869 -0.032004956 0.0042646835
-0.012834845 -0.031985626 0.0042283582
-0.013373922 -0.031962741 0.0042718453
-0.013877131 -0.031953119 0.0043186722
-0.014385374 -0.031996489 0.0042567388
-0.01478884 -0.032021366 0.0043036933
-0.015315626 -0.032074865 0.0043046502
-0.015851932 -0.032102264 0.004290713
-0.016395006 -0.03210536 0.0042744777
-0.016821556 -0.032002259 0.0042877519
-0.017340226 -0.031966452 0.0042689275
-0.018062245 -0.031939447 0.0042524822
-0.018293612 -0.031908497 0.0041479385
-0.01886595 -0.031924676 0.0043085469
-0.019301424 -0.031971749 0.0042339424
-0.01981594 -0.032000527 0.0042644567
-0.020391371 -0.032062501 0.0042855907
-0.02083157 -0.032060873 0.0042564585
-0.021249812 -0.032076865 0.0042542648
-0.021766469 -0.032056645 0.0042213751
-0.022253372 -0.032057121 0.0042633358
-0.022759467 -0.032185864 0.0041966424
-0.023310825 -0.032214507 0.0041904924
0.02300046 -0.032138396 0.0044195568
0.0063492358 -0.032231804 0.0043610218
-0.014692809 0.032132957 0.0043757111
-0.01536436 0.032183066 0.0044484125
-0.015823409 0.0321627 0.0045495816
-0.016238255 0.032167476 0.0045291055
-0.016720077 0.032176353 0.0043926011
-0.022078048 0.032115769 0.004415093
0.02268219 0.031943731 0.004396759
0.022289839 0.031923585 0.0044970438
0.021639366 0.031897973 0.0043417206
0.021171598 0.03190944 0.0044811163
0.020755444 0.031941049 0.0044786702
0.014184858 0.031891998 0.0044610342
0.013167068 0.031833149 0.0045237043
0.012754299 0.031854477 0.0044613089
0.01227833 0.031902976 0.0045631845
0.011659008 0.031955771 0.0045407549
0.011188125 0.031938415 0.0045460421
0.010713619 0.031981144 0.0045690266
0.010192527 0.031922836 0.0045611896
0.0097028827 0.031907067 0.0045974967
0.0092475861 0.03187532 0.0045899707
0.0087056374 0.031873774 0.0045313183
0.0082051167 0.03183322 0.0045026746
0.0076194489 0.03186965 0.0045662629
0.0072151162 0.031926416 0.004536577
0.006756946 0.031940497 0.0045776758
0.00621793 0.032022793 0.0045635118
0.0057448614 0.031993978 0.0045857471
0.0051782466 0.032033369 0.0045698015
0.0046721329 0.031970017 0.004543229
0.0042646443 0.031964466 0.0045104288
0.0037110511 0.031840697 0.0045363721
0.0032116165 0.031891894 0.0044666752
0.0027131476 0.031918637 0.0045496756
0.0022624498 0.031860009 0.0045456826
0.0017545796 0.031860672 0.0045889481
0.0012209415 0.031867567 0.004537039
0.00072394963 0.031866275 0.0045663337
0.00031917356 0.031887751 0.0045598545
-0.00026617898 0.031905208 0.0046068802
-0.00072697783 0.031894911 0.0045691249
-0.0012726956 0.031858962 0.0046046055
-0.0017653638 0.031905826 0.0045582373
-0.0022909725 0.031847335 0.0045309272
-0.0027529756 0.031877235 0.0045331148
-0.0032395385 0.031871311 0.0045702923
-0.0038185352 0.03192642 0.0045644599
-0.0043686652 0.031960025 0.0045704166
-0.0047672382 0.03197559 0.0045083086
-0.0052076187 0.031983875 0.0045473259
-0.0057330434 0.031960573 0.004554953
-0.0062963776 0.031911861 0.0045512537
-0.0068595493 0.031915519 0.0045430446
-0.0073167393 0.03192744 0.0044445908
-0.0077958489 0.031829078 0.0045153773
-0.0082617886 0.031876545 0.0045042611
-0.0087796375 0.031895068 0.0045194132
-0.0092709158 0.031889416 0.0045611891
-0.009782223 0.031905916 0.0045541124
-0.010267322 0.031832602 0.0045691621
-0.010812441 0.031803586 0.0044808895
-0.011287406 0.031790912 0.0045200214
-0.011854664 0.031810433 0.004525763
-0.012287259 0.03187063 0.0045571495
-0.012775202 0.031823825 0.0045719389
-0.013275876 0.031792685 0.0045240126
-0.013829463 0.031884871 0.0045037912
-0.01433446 0.031905256 0.0045353002
-0.014789082 0.031911209 0.004557421
-0.015254185 0.031970307 0.0045506321
-0.015808802 0.031929921 0.0044819429
-0.01629049 0.03195063 0.0045349309
-0.016743734 0.031901229 0.0044974363
-0.017300367 0.031926651 0.0045202528
-0.017744441 0.031892776 0.0045458674
-0.018232198 0.031849813 0.0045664804
-0.018806711 0.031824145 0.0045723859
-0.019333685 0.031832784 0.0044910531
-0.019749727 0.031815588 0.0045719445
-0.020285789 0.031866565 0.0045561576
-0.020772913 0.031835448 0.0045547727
-0.02133245 0.03182188 0.0045840573
-0.021773301 0.031779006 0.0045419424
-0.022248773 0.031767882 0.0045520552
-0.022726029 0.031777695 0.0045543299
-0.0230841 0.031685438 0.0045494121
0.023195267 0.031644534 0.0045607137
0.022658411 0.031685039 0.0045970632
0.02221353 0.031664282 0.0045337863
0.02177483 0.031689856 0.0045635966
0.021220258 0.031601232 0.004544206
0.020719264 0.031680096 0.0045673475
0.020202279 0.031746943 0.0045031151
0.019701723 0.031747092 0.0045158658
0.019247446 0.031722512 0.0045420164
0.018700818 0.031735681 0.0044740634
0.018207651 0.031699903 0.0045193182
0.017656926 0.031624265 0.0045847143
0.017219525 0.031614833 0.0045998064
0.016686447 0.031636979 0.004541622
0.016239712 0.031632189 0.0045164358
0.015711525 0.031643584 0.0045570876
0.015206536 0.031664524 0.004543311
0.014728886 0.031689864 0.0045728292
0.014230588 0.031680584 0.004589323
0.013707992 0.031707365 0.0045830919
0.01317515 0.031700931 0.0045974534
0.012663015 0.031671353 0.0045618275
0.012257783 0.031660959 0.0045830114
0.011739375 0.031694118 0.0045844493
0.011188146 0.031693041 0.0045846282
0.010647062 0.031710133 0.0046202615
0.010186212 0.031686705 0.0045950059
0.0097204652 0.031688079 0.0045571588
0.0091635734 0.031608187 0.0045857336
0.008684434 0.031610541 0.0045866542
0.0082485471 0.031642742 0.0046407506
0.0077258153 0.031652831 0.0046251761
0.0071828589 0.031689469 0.0046006613
0.0067264545 0.031712528 0.0046028015
0.0061993632 0.031729966 0.0045657512
0.0057550515 0.031678598 0.004583824
0.005245558 0.031693343 0.0045441454
0.0047693807 0.031710632 0.0046270881
0.0042286199 0.031748571 0.0046936153
0.0036226525 0.03171473 0.0046434882
0.0031315463 0.031733781 0.004637938
0.0026655209 0.031723212 0.0045753154
0.0022300715 0.031699572 0.0046413448
0.0016049752 0.031688839 0.0045965505
0.0012087082 0.031608049 0.0045875399
0.000764661 0.031612892 0.004631782
0.00022462104 0.031616122 0.004555102
-0.00027596252 0.031652335 0.0045331949
-0.0006892099 0.031687312 0.0045746136
-0.0010371692 0.031718567 0.0044566235
-0.0034559588 0.031705692 0.0043735406
-0.0037822118 0.0316808 0.0045906198
-0.0042495811 0.031570002 0.0045307707
-0.0047960375 0.031543385 0.004557428
-0.0052712909 0.031519689 0.0045599258
-0.005712417 0.031555835 0.0045969579
-0.0063044289 0.03156868 0.0045786332
-0.0067686019 0.031629294 0.0045921355
-0.0072171441 0.031624306 0.0046204501
-0.010115307 0.031659544 0.0044866209
-0.010636233 0.031653889 0.0047659399
-0.011160502 0.031635776 0.004558811
-0.011703941 0.031625088 0.0045073293
-0.012305988 0.031623807 0.004436329
-0.012831086 0.031613667 0.0045213499
-0.022418048 0.031556003 0.0045257504
-0.022873484 0.03144433 0.0045443536
-0.023056932 0.031184316 0.0044485899
-0.023684215 0.031119231 0.004773845
-0.023414329 0.030873101 0.0043834168
-0.023728628 0.03081524 0.004602782
0.023719743 0.030585861 0.0045863888
-0.023440106 0.030304616 0.0045736986
-0.023691775 0.030312132 0.0045455489
0.023731261 0.030176044 0.0045860987
-0.023362771 0.029819086 0.0045460467
-0.023617752 0.029825905 0.004586251
0.023793936 0.029659744 0.0045831609
-0.023398891 0.029323041 0.004556865
-0.023605684 0.029308189 0.0045757582
0.023780491 0.02920988 0.0045968983
-0.023417275 0.028775305 0.004570202
-0.023605306 0.028823566 0.0045982981
0.023825394 0.028755965 0.0045311982
-0.023466911 0.028285928 0.0045592058
-0.02365897 0.028314477 0.0045591225
0.023864221 0.028123328 0.0045744679
-0.023478903 0.027685789 0.0043771677
-0.023664854 0.027829323 0.0045494302
0.024021519 0.027438786 0.0044656787
0.023886001 0.027647212 0.0045816535
-0.023489894 0.027323123 0.0045637675
-0.023734534 0.027359977 0.0045318971
0.024009403 0.027077459 0.0045809299
0.023874762 0.027184196 0.0045451978
-0.023442306 0.026760554 0.004397952
-0.023697011 0.026784429 0.0045281239
0.023893066 0.026668629 0.0045379912
-0.023451338 0.026297219 0.0044846251
-0.023686204 0.026290758 0.0045247483
0.023872977 0.026156042 0.0045988709
-0.023657858 0.025840491 0.0045382627
0.023891522 0.025681267 0.004630419
-0.023643926 0.025261486 0.0045127668
0.023903491 0.025142994 0.004615536
-0.023698209 0.024772914 0.0045048739
0.024029633 0.024752675 0.0045087757
0.023867743 0.024629638 0.0046272879
-0.023689644 0.024324261 0.0045641661
0.02389551 0.024127163 0.0046269014
-0.023699559 0.023773067 0.0045804465
0.023849305 0.023678074 0.0046333759
-0.023692237 0.023282131 0.0046134451
0.023809575 0.023187151 0.0045565213
-0.02368924 0.022858687 0.0045688818
0.023815718 0.022619169 0.004638359
-0.023671646 0.022331122 0.0045664674
0.023808956 0.022107504 0.004644582
-0.023686949 0.021806678 0.0045380704
0.023772867 0.021610307 0.0045821657
-0.02366939 0.021294408 0.0045837499
0.023754843 0.021152591 0.0046313964
-0.023667615 0.020826695 0.0045818943
0.023730995 0.020675614 0.004602334
-0.02369285 0.020333532 0.0045979726
0.023743566 0.020193174 0.0046397131
-0.023688689 0.019818872 0.0045327027
0.023721807 0.019677818 0.0046637398
-0.023724208 0.019339487 0.0045726406
0.023730876 0.019168619 0.0046635233
-0.02366234 0.018792039 0.0045582675
0.023732945 0.018680369 0.0046462892
0.023550265 0.018644521 0.0046037338
-0.02365442 0.018324267 0.0045229327
0.023748897 0.018178113 0.0046292809
0.023538703 0.018355245 0.0047432557
-0.023573361 0.017790662 0.0046225036
0.02371948 0.01766126 0.0046218843
-0.023622703 0.017321706 0.0045817927
0.023730721 0.017188415 0.0045578456
0.023561386 0.017104689 0.0045923893
-0.023675149 0.016813681 0.0046126358
0.023735555 0.016669542 0.0046402519
0.023549832 0.016815621 0.0047318125
-0.023699075 0.016356414 0.0046169958
0.023699675 0.016135272 0.0046234867
-0.023608711 0.015778387 0.0045957724
0.023771809 0.015627727 0.0045889658
0.023563381 0.015535042 0.0045398697
-0.023632172 0.015280229 0.0046300055
0.023794465 0.015138812 0.0046040765
0.023561513 0.015191891 0.0046135522
-0.023649901 0.014798588 0.0046258024
0.023801401 0.014663195 0.0046478771
0.023536431 0.014694592 0.0045631942
-0.023718009 0.014340681 0.0045400504
0.023776073 0.014136835 0.0046329331
0.023509899 0.014262742 0.0046231351
-0.023718845 0.013807826 0.0046400488
0.023822416 0.013609139 0.0046269675
0.023441758 0.013666431 0.0046258792
-0.023769405 0.013358607 0.0045966711
-0.023909789 0.013302559 0.0046556229
0.02382233 0.013130607 0.004614966
0.023383666 0.013064767 0.0046296795
-0.023652 0.012806374 0.0046095136
-0.023930056 0.013058913 0.0045548896
0.023794707 0.012682653 0.0045872144
0.023354016 0.012573687 0.0046344865
-0.023642372 0.012301684 0.004619888
-0.023911275 0.012361724 0.0045703547
0.023805117 0.012155622 0.0045819934
-0.023692111 0.011854292 0.0046062088
0.023799222 0.011658574 0.0046461471
0.023416519 0.011898133 0.0048730988
-0.023719788 0.011423866 0.0045982441
0.023762979 0.011156788 0.004629924
-0.023717402 0.010840337 0.0046137199
0.023807641 0.010668247 0.0046428069
-0.023757348 0.010270194 0.0046332967
0.023814831 0.010157562 0.0046475627
-0.023753498 0.0097844433 0.004609054
-0.023913931 0.0099199545 0.0048408839
0.023811275 0.0095969746 0.0046343375
-0.023708519 0.0092155244 0.0046217693
-0.023882568 0.0093653342 0.004433
0.02382195 0.0092269741 0.0046206382
-0.023717392 0.0088124201 0.0045939125
0.023789775 0.0086994078 0.0046600704
-0.023739045 0.0083380975 0.0046071303
0.023759136 0.00818328 0.0047077006
-0.02376816 0.0078011975 0.0045965547
0.023734685 0.0076543181 0.0046750247
0.023620583 0.0075127343 0.0048765969
-0.023781348 0.0073060878 0.0046491697
0.023719488 0.0071349978 0.0046561998
0.023610381 0.0070355497 0.004786334
-0.023798835 0.0068700965 0.0046441113
0.023719167 0.0065564108 0.0046323892
0.023577016 0.0067633232 0.0048659109
-0.023804903 0.0063565662 0.004595696
0.023763895 0.0060988502 0.0046430831
0.023618057 0.0062262025 0.0046197632
-0.023806904 0.0058077998 0.0046087462
-0.023855159 0.0059662699 0.0047157682
0.023797112 0.0056116343 0.0046443027
0.023605872 0.0057282839 0.0046199611
-0.023773516 0.0053299712 0.0045853299
-0.023861391 0.00535237 0.0045752455
0.0238057 0.0051301853 0.0047124531
0.023552222 0.0051679537 0.0045952899
-0.023737377 0.0047706049 0.004643064
-0.023959875 0.0047920197 0.004580772
0.023799123 0.0046718954 0.0047088191
0.023563644 0.0046457839 0.0046326267
-0.023709511 0.004278169 0.0046365438
-0.024010289 0.0042517404 0.0046466179
0.023943529 0.0041292999 0.0046771872
0.023569595 0.0041263569 0.0046900674
-0.023696821 0.0038404744 0.0045912433
-0.023990821 0.0037484274 0.0046753571
0.023866776 0.0036990019 0.0046525556
0.023494923 0.0036484075 0.0046954332
-0.023702528 0.0033503245 0.0046145353
-0.024030862 0.0033671982 0.0046153734
0.023750365 0.003156686 0.0046195206
0.023526983 0.0031304753 0.0046890238
-0.023722842 0.002862202 0.0046332823
-0.023976605 0.0028205616 0.0046453848
0.02369356 0.002655542 0.0046291472
0.02360563 0.0026301574 0.0047266227
-0.02380774 0.0022675025 0.0046829241
-0.023850868 0.0021804979 0.0044773472
0.023692708 0.0019653609 0.0046251402
0.023591656 0.0021565375 0.0047111292
-0.023774626 0.0018572065 0.0046726558
0.023684107 0.0017501224 0.0047289561
0.023604348 0.0016271749 0.0046744277
-0.023720464 0.0013371252 0.0046369662
-0.023891389 0.0013316169 0.0047260281
0.023595776 0.0011883932 0.0046934821
-0.023632439 0.00083191192 0.0046373629
-0.02384029 0.0008447101 0.0046403683
0.023712935 0.000614363 0.0047275228
0.023589138 0.00068844168 0.004719886
-0.023660436 0.00030016003 0.0046619293
-0.023830062 0.00040070928 0.0045399168
0.023731004 0.00014665359 0.0046656216
0.02359676 0.00017161845 0.0046648993
-0.023696994 -0.00016173138 0.0046475898
-0.02381501 -0.00035031553 0.0047250064
0.023755303 -0.00031362189 0.0047180774
0.023615371 -0.000357774 0.0046004048
-0.023689423 -0.00067643949 0.0046144975
-0.023841172 -0.00075928762 0.0045094984
0.023748381 -0.00083004043 0.0047029834
0.023631118 -0.00087440875 0.0046526166
-0.023648923 -0.001199411 0.0046536261
-0.023828272 -0.0012562834 0.0046330253
0.023728361 -0.0013619279 0.0047565298
0.023589464 -0.0013532068 0.0046529295
-0.023713376 -0.0017380572 0.0046478696
-0.023909869 -0.0018121698 0.0045070164
0.023713438 -0.0018062979 0.0047403434
0.02357289 -0.0018266856 0.0046957848
-0.023661774 -0.002173204 0.0046601538
-0.023851488 -0.0021973089 0.0046322099
0.023733599 -0.0024082272 0.0046497397
0.023576494 -0.0023605509 0.0047213864
-0.023718549 -0.0026948121 0.0046707285
-0.023927603 -0.0027467951 0.0046158028
0.0235858 -0.0028397539 0.0047048982
-0.023691971 -0.0031313801 0.0047069732
-0.023851933 -0.003163713 0.0045921127
0.023609154 -0.0032862097 0.0046795234
-0.023729973 -0.0036527915 0.0046946458
-0.023789763 -0.0036703104 0.0046073049
0.023628857 -0.003867178 0.0047179013
-0.023699045 -0.0041897367 0.0047659371
-0.023808878 -0.0042232829 0.0046748794
0.023744011 -0.0044307001 0.004662286
0.023657408 -0.004385544 0.0047316942
-0.023689907 -0.0045777955 0.0047760545
-0.023881098 -0.0047369874 0.0046796538
0.023809254 -0.0048240097 0.0047058156
0.023666384 -0.0047895317 0.0046654069
-0.023753131 -0.0053370739 0.0045567174
-0.023882765 -0.0052313237 0.0046775271
0.02376911 -0.0053359214 0.0047532963
0.023643006 -0.0053738724 0.0046975138
-0.023764471 -0.0056803338 0.004535669
-0.023884512 -0.0057024322 0.0046959622
0.023750011 -0.0059159761 0.0046491325
0.023622604 -0.0058800299 0.0046604895
-0.023701757 -0.0062895529 0.0046088793
-0.023876876 -0.0061587314 0.0047250106
0.023619404 -0.0063665356 0.0046610963
-0.023658242 -0.0066997688 0.0046753814
-0.023914604 -0.0066849459 0.0046670232
0.023571113 -0.006851051 0.0046702595
-0.023651367 -0.007116532 0.0046410477
-0.023918843 -0.0070560491 0.0047039501
0.023509696 -0.0074077006 0.0046883053
-0.023660066 -0.0076096645 0.0046783048
0.023518942 -0.0078713121 0.0046955361
-0.023668021 -0.0082124583 0.004698921
-0.023800753 -0.0080123805 0.0047470788
0.023560205 -0.0083453795 0.0047233002
-0.023657445 -0.0086850841 0.0046709431
-0.023836115 -0.008800691 0.0047307299
0.023585742 -0.0088948868 0.0047305352
-0.023694357 -0.0091083767 0.0046780729
-0.023886995 -0.0090766419 0.0044768159
0.023599342 -0.0093794772 0.0047671143
-0.023708262 -0.0096669346 0.0046873256
-0.023823053 -0.0096915467 0.0044963583
0.023643646 -0.0098713078 0.0047531659
-0.023652341 -0.010245025 0.0047341608
-0.023749046 -0.010090413 0.0045069954
0.023658257 -0.010383717 0.0047506113
-0.023701157 -0.010652648 0.0046937759
0.023673797 -0.010892658 0.0047099567
-0.023724817 -0.01115187 0.0046387063
-0.023742208 -0.011354056 0.0046678823
0.023829464 -0.011393243 0.0047416035
0.023630958 -0.011324281 0.0047180653
-0.023599213 -0.011770945 0.004878365
-0.023754928 -0.011692852 0.0046902169
0.023849187 -0.011823104 0.0047400589
0.023599278 -0.011838967 0.0047320542
-0.023696162 -0.012220153 0.0047484171
-0.02377245 -0.012268388 0.0046613156
0.023873867 -0.01236016 0.0047381711
0.023555566 -0.012385447 0.0046823262
-0.023523161 -0.012769515 0.0047452147
-0.023775419 -0.012724875 0.0046723969
0.02393249 -0.012794159 0.0047405814
0.023540236 -0.012833798 0.0047008884
-0.023580253 -0.013219367 0.0046960916
-0.02376385 -0.013179135 0.0045870598
0.02391836 -0.013325678 0.0047347546
0.023470726 -0.013349085 0.0047125556
-0.02355253 -0.01376794 0.0046957955
-0.023736915 -0.013672804 0.0045962762
0.023887578 -0.013855183 0.0047272034
0.023434635 -0.013849403 0.0046989289
-0.02360063 -0.014188377 0.0047426266
-0.023753697 -0.014282461 0.0046598143
0.023916364 -0.014329989 0.0046960991
0.023449173 -0.014344002 0.0047187302
0.02328351 -0.014225623 0.0047344184
-0.023618743 -0.014696715 0.0047177607
-0.023778375 -0.014635674 0.0046999711
0.023869075 -0.014839202 0.0047435821
0.023479685 -0.014766988 0.0047337366
0.023282547 -0.014906857 0.0047455141
-0.023596305 -0.015159473 0.0046508363
-0.02379645 -0.015197267 0.0046907496
0.02388414 -0.015325497 0.0047569349
