# .PCD v0.7 - Point Cloud Data file format
VERSION 0.7
FIELDS x y z
SIZE 4 4 4
TYPE F F F
COUNT 1 1 1
WIDTH 1216
HEIGHT 1
VIEWPOINT 0 0 0 1 0 0 0
POINTS 1216
DATA ascii
0.021394711 -0.030409917 0.0013724344
0.020592829 -0.030436844 0.00091333478
0.020976927 -0.030022686 0.0009608806
0.020609006 -0.031524211 0.0019604692
0.019922119 -0.031029483 0.0012984399
0.01983471 -0.030528985 0.00091697765
0.020348679 -0.029458795 0.00049046305
0.02000742 -0.029969893 0.0006437113
0.0196112 -0.029290339 0.00038740892
0.018725581 -0.030458143 0.00089102227
0.019161576 -0.030983467 0.0012752183
0.019159224 -0.030030426 0.00066283171
0.018688947 -0.029279698 0.0003666378
0.0176991 -0.030637002 0.0008905016
0.018305475 -0.031051533 0.0012703791
0.018076614 -0.030078974 0.00060495274
0.017703306 -0.029369442 0.00028063916
0.017608199 -0.031235995 0.0013196536
0.016807374 -0.031218007 0.0011289845
0.017003806 -0.031792469 0.0018012127
0.01679397 -0.030631782 0.00069275626
0.017082557 -0.030045012 0.00045159622
0.016716698 -0.029455937 0.00018938335
0.015762199 -0.031405061 0.0011013288
0.016206522 -0.031919193 0.0018259055
0.015928429 -0.030790644 0.00064516068
0.016143207 -0.030068165 0.00032837834
0.015730154 -0.029513918 0.00011738863
0.014770634 -0.031467848 0.0010667451
0.015216766 -0.031959519 0.0017648772
0.014941 -0.030872423 0.0006027979
0.015178856 -0.030130008 0.00025675062
0.014745309 -0.029554289 9.0602e-05
0.013781233 -0.031455196 0.0010438802
0.014234057 -0.031979173 0.0017360114
0.013940983 -0.030891459 0.00061180431
0.014197429 -0.03018479 0.00026732776
0.013743787 -0.029571269 0.0001122822
0.012816122 -0.031379461 0.0010167176
0.013394679 -0.03201307 0.0017837402
0.013068341 -0.030971549 0.00069950317
0.013139422 -0.030358303 0.00039610313
0.012936343 -0.029665707 0.00018716231
0.012634806 -0.031877939 0.0016169016
0.011984586 -0.031366985 0.0010664349
0.012223104 -0.030906605 0.00072783971
0.01249148 -0.030294785 0.00042789424
0.011586939 -0.030490164 0.00054924854
0.011041185 -0.030974334 0.00076176442
0.011253752 -0.031357717 0.001044175
0.010719274 -0.030537995 0.0005331682
0.0097775664 -0.030857593 0.00058863492
0.010234236 -0.031416085 0.0010309075
0.0098729087 -0.030465927 0.00040357799
0.0087737544 -0.030902391 0.0005061095
0.0091915149 -0.031406309 0.00095814851
0.009318945 -0.029863136 0.00017741891
0.0090745203 -0.030511523 0.00034919614
0.0086294487 -0.029705351 0.00012209231
0.0077606915 -0.030866526 0.00043907238
0.0082034264 -0.031412281 0.00095182762
0.0081198076 -0.030532759 0.0002938344
0.0077019157 -0.02973626 7.587955e-05
0.0067466195 -0.030869732 0.00039677491
0.0072196475 -0.031455144 0.00098732044
0.0071142241 -0.030537326 0.00023874635
0.0067148795 -0.029795999 2.0277061e-05
0.0057556462 -0.030886954 0.00037155248
0.0062296307 -0.031498432 0.00097011338
0.0061265854 -0.030563686 0.00021661975
0.0057118228 -0.029834421 -3.0524097e-06
0.0050163632 -0.030939646 0.00038734655
0.0053026453 -0.031540371 0.0009522062
0.0054445351 -0.030649178 0.00024327202
0.0049205264 -0.029934492 1.5670099e-05
0.0047101029 -0.031216843 0.00064310763
0.0045782216 -0.030772245 0.00032000718
0.023496952 -0.03243079 0.0033861424
0.023091363 -0.03242043 0.0030974033
0.023382455 -0.032444745 0.0041414527
0.023984218 -0.032320824 0.0035525034
0.022691801 -0.032149278 0.0035677413
0.022392819 -0.031738795 0.0031963584
0.021893911 -0.031334821 0.0026404313
0.022004325 -0.030902181 0.0019440579
0.021922367 -0.030152399 0.0015058892
0.02240254 -0.029106755 0.0014380241
0.021788318 -0.029354302 0.0016673325
0.022946063 -0.029505257 0.00075877807
0.022879608 -0.028289102 0.0010836399
0.021421945 -0.031617936 0.0031905579
0.020614659 -0.031778958 0.0025357106
0.020784076 -0.031992968 0.0034025346
0.021429548 -0.028804794 0.0014271288
0.021052387 -0.029250894 0.00088114705
0.021219954 -0.027943356 0.0011200018
0.020734437 -0.028432351 0.00060912187
0.020651586 -0.027853258 0.00052519341
0.01972466 -0.031812187 0.0024172631
0.020142771 -0.032085896 0.0033582172
0.019916156 -0.031509504 0.0019320175
0.019893184 -0.028516017 0.00032865797
0.02021574 -0.027207514 0.000271959
0.019970469 -0.027850434 0.00027933763
0.019555001 -0.027106274 0.00015192562
0.018735647 -0.03190254 0.0023735007
0.019151254 -0.032166887 0.0032869317
0.019049946 -0.031521074 0.0018515342
0.018792471 -0.028576886 0.00022970003
0.018919285 -0.027732674 0.00013241677
0.018805042 -0.02704577 6.0448365e-05
0.017841956 -0.03206626 0.0024573018
0.018179134 -0.032246321 0.0032318486
0.017983332 -0.031740539 0.0019718469
0.017845433 -0.028644465 0.00012722795
0.017867584 -0.027732499 -1.9421277e-05
0.018256338 -0.026419669 -8.4617466e-05
0.018008329 -0.027207658 -6.4064574e-05
0.017329015 -0.026166063 -0.00022819321
0.016942782 -0.03211071 0.0023602601
0.017214075 -0.032321334 0.0031393659
0.016817879 -0.028612046 4.9007867e-05
0.016992362 -0.027889546 -4.8519665e-05
0.017068572 -0.027344188 -0.00010985092
0.01674179 -0.026289498 -0.00022997733
0.015827144 -0.032216366 0.0023798647
0.016195063 -0.032365255 0.0030909562
0.015751772 -0.028555827 4.4859597e-05
0.016128721 -0.027871218 -4.5839697e-06
0.016286029 -0.027117165 -0.00011309615
0.015569072 -0.027248353 -2.7410875e-05
0.014805917 -0.032247677 0.0023513103
0.01519048 -0.032398 0.0031058788
0.014735075 -0.028557075 4.8677844e-05
0.01508889 -0.027974702 5.2222036e-05
0.014616653 -0.027264889 2.2504508e-05
0.013829676 -0.032272078 0.0023145899
0.014024563 -0.032418299 0.0032264923
0.013750298 -0.028627384 3.1234158e-05
0.014071686 -0.028064061 4.2757296e-05
0.01361838 -0.0273143 -9.843352e-06
0.01281553 -0.032188628 0.0022152984
0.013074449 -0.0323699 0.0030265218
0.012709686 -0.028912328 6.0894294e-05
0.013048758 -0.028120847 -2.1184038e-05
0.012633611 -0.027409323 -0.00011410005
0.011766122 -0.032088231 0.0020991075
0.012211395 -0.032312375 0.0031491295
0.011912128 -0.031842478 0.0016141477
0.011846431 -0.029557709 0.00022450851
0.011743655 -0.028817825 3.5542689e-05
0.012045005 -0.028110715 -9.1328053e-05
0.011644442 -0.027475674 -0.00018535009
0.010758236 -0.032093566 0.0020541339
0.011210833 -0.032293528 0.0031517451
0.011041963 -0.031826183 0.0015549251
0.010788763 -0.029823873 0.00028985582
0.010870157 -0.028942976 6.190686e-05
0.011091188 -0.028147472 -9.2157934e-05
0.010642604 -0.027486611 -0.00016273036
0.0097683687 -0.032083336 0.0020190415
0.010055946 -0.032276627 0.0031911817
0.010060694 -0.031849194 0.0015466921
0.010022469 -0.029749017 0.0002182249
0.0098946672 -0.028981758 8.3002808e-05
0.010132325 -0.028247928 -3.3435528e-05
0.0096288864 -0.027460953 -7.4994809e-05
0.0093736658 -0.032236565 0.0030502295
0.0089571821 -0.0320477 0.0020873172
0.0089413431 -0.031870537 0.0016539617
0.0090006534 -0.029104684 8.920001e-05
0.0091595417 -0.028516904 4.2429921e-05
0.0088223144 -0.027513215 6.2876643e-06
0.007807361 -0.03179992 0.0016226798
0.0081496779 -0.031991947 0.0021987017
0.0079799313 -0.028962744 4.6162e-05
0.008269812 -0.028338011 4.6945788e-05
0.0077813771 -0.028382998 3.8194223e-05
0.0067986166 -0.03181655 0.0015886873
0.0071764374 -0.031995181 0.0022542404
0.0068681431 -0.029038735 -2.9073533e-05
0.0072198641 -0.027689043 4.1528547e-06
0.0070965518 -0.028524557 -1.5429265e-05
0.0063692741 -0.027522068 -6.7784116e-05
0.0058038123 -0.031876985 0.0015585755
0.0061786771 -0.032049987 0.0022135964
0.005847713 -0.02909684 -7.5416465e-05
0.0060930979 -0.028543577 -8.4269312e-05
0.0055907369 -0.027575521 -0.0001067275
0.0048062876 -0.031863712 0.0014770371
0.0051836632 -0.032094013 0.0021356896
0.0048856121 -0.029394561 -4.0156505e-05
0.0050186738 -0.028731663 -7.5315533e-05
0.004819355 -0.027683793 -0.00010300489
0.0037676133 -0.031810571 0.0014049201
0.0041754823 -0.032102611 0.0020745627
0.0038401349 -0.0311352 0.0006390381
0.0039152 -0.030096022 0.00013956983
0.0040658554 -0.029181506 -1.7748564e-05
0.0043130275 -0.028612975 -7.172054e-05
0.0035355659 -0.028716 -4.4117027e-05
0.0027683512 -0.031741761 0.0013900738
0.003167063 -0.032075852 0.0020925039
0.0029279962 -0.031169372 0.00073707668
0.0029277396 -0.030254498 0.00026586931
0.0031319419 -0.02933692 5.8676e-05
0.0026760744 -0.028746275 1.1781522e-06
0.0017565116 -0.031676784 0.001368597
0.0019880095 -0.032032341 0.0023404057
0.0019372283 -0.031143084 0.00079715258
0.001941361 -0.030269384 0.00034129899
0.0021743686 -0.029455746 0.00013320013
0.0016839132 -0.028764183 4.4492481e-05
0.00074999128 -0.031666424 0.0013204073
0.0010311455 -0.031962257 0.0021926216
0.00093315262 -0.031149814 0.00079066923
0.00094099902 -0.03028705 0.00035786896
0.0011693621 -0.029530626 0.00015816555
0.00067982404 -0.028795868 4.2247586e-05
-0.00026539946 -0.031692583 0.0012594252
0.00019308552 -0.031978779 0.0023280922
-6.870646e-05 -0.031207375 0.00072705297
-6.4174179e-05 -0.03033218 0.00031659301
0.00015857909 -0.029580018 0.00014101274
-0.00032175938 -0.028831257 2.9790339e-05
-0.0012620781 -0.031783048 0.0012048831
-0.00080558611 -0.032015443 0.0022909346
-0.0010611964 -0.031283148 0.00064816326
-0.0010633306 -0.030384533 0.00025436387
-0.00083763059 -0.029645039 0.00012904141
-0.0013311529 -0.028846079 4.4699264e-05
-0.0022514705 -0.031865034 0.0011608982
-0.0018134136 -0.032064497 0.0022145379
-0.0020556129 -0.031351969 0.00058646
-0.0020600357 -0.030434787 0.0002062877
-0.0018236483 -0.029736092 0.00011769781
-0.0023361421 -0.028863406 4.9943148e-05
-0.0032375194 -0.031894546 0.0011258139
-0.0028056172 -0.032089956 0.0021478892
-0.0030514207 -0.031404506 0.0005450421
-0.0030526831 -0.030499993 0.00014743619
-0.0028364426 -0.029798815 5.8019552e-05
-0.0033325818 -0.028929876 -1.3624631e-05
-0.0042356821 -0.031864852 0.001102986
-0.0037840731 -0.032079544 0.0021287729
-0.0040496201 -0.031430911 0.00053909631
-0.0040475521 -0.030563243 9.2533817e-05
-0.0038464582 -0.02981481 -2.8870465e-05
-0.0043181265 -0.0290063 -9.1356895e-05
-0.0052211564 -0.031809963 0.0010843409
-0.0048547778 -0.032075547 0.0022449642
-0.0050493991 -0.031424329 0.00056560501
-0.0050517241 -0.030581079 0.0001043025
-0.00483636 -0.029831067 -5.6807858e-05
-0.0053087864 -0.029040668 -0.00010120915
0.023968276 -0.03224504 0.0039295047
0.023944531 -0.032274798 0.0046882988
0.023234533 -0.032396365 0.0047010602
0.022510394 -0.031772077 0.0044422802
0.021751216 -0.031486023 0.0040149102
0.021862855 -0.031446982 0.0032806112
0.0223772 -0.028650858 0.0019056262
0.021953981 -0.028873147 0.0022605532
0.022839092 -0.028211281 0.0022004363
0.021321429 -0.031588048 0.0042195851
0.020484529 -0.032137159 0.0039069946
0.020757403 -0.032070547 0.0048609185
0.021412963 -0.028376393 0.0026064373
0.021353208 -0.027650964 0.0018644048
0.020776993 -0.026937455 0.0007038461
0.021132434 -0.026786905 0.0013466285
0.021018904 -0.025649747 0.001114957
0.020481355 -0.026314057 0.00057170313
0.020445293 -0.025497334 0.00047140566
0.019750856 -0.032239672 0.0038820575
0.019906888 -0.032324374 0.0049146414
0.019788593 -0.02628506 0.00021862659
0.020192668 -0.025062513 0.00026922207
0.019779727 -0.025642211 0.00017227761
0.019364748 -0.024883265 -2.2080785e-05
0.018780332 -0.032268725 0.0038314431
0.019005725 -0.03235627 0.0047088163
0.018755741 -0.026257213 5.6240824e-06
0.018953566 -0.025605232 -5.0114759e-06
0.018513698 -0.024942914 -0.00012988711
0.017782129 -0.032365862 0.0038024727
0.018142914 -0.032421298 0.0047817314
0.017973807 -0.025596451 -0.00016252694
0.017552327 -0.025018044 -0.0002425987
0.016779285 -0.032446139 0.0037705186
0.017147332 -0.032484282 0.0047164871
0.016824551 -0.025680998 -0.0002446002
0.016534358 -0.02508091 -0.00029644603
0.015787613 -0.032458678 0.0037297627
0.01617069 -0.032527346 0.0046879537
0.015786678 -0.026245607 -0.00015153608
0.015889157 -0.025510311 -0.00024146428
0.015540363 -0.025057759 -0.00028632639
0.014775602 -0.032452449 0.0037025935
0.015180573 -0.032521874 0.0046667424
0.014674021 -0.026421603 -6.31523e-05
0.015001136 -0.025657088 -0.0001703297
0.01453877 -0.025064919 -0.00021467039
0.013945034 -0.032421179 0.0037576044
0.014130319 -0.032466032 0.0047585405
0.013708073 -0.026501853 -6.0960345e-05
0.014016946 -0.025817558 -0.00011129408
0.013520471 -0.025060751 -0.00014028422
0.013338202 -0.0323909 0.0045287665
0.012995372 -0.032357745 0.0036133991
0.012724003 -0.026541123 -0.00014348335
0.012993276 -0.025926631 -0.00014180179
0.012526082 -0.025109017 -0.00016992581
0.011901306 -0.032311402 0.0036803493
0.011704 -0.026530949 -0.00023607466
0.011976281 -0.025948115 -0.00022059123
0.011539504 -0.025195364 -0.00026209775
0.010899172 -0.032277416 0.0037401682
0.010660346 -0.02655795 -0.00022973963
0.010972472 -0.025936589 -0.0002614978
0.010543423 -0.025243122 -0.00030193763
0.010050324 -0.032250583 0.0038690909
0.0098271687 -0.02675529 -0.00014323265
0.0099203587 -0.026111497 -0.00018817084
0.0097397622 -0.025341846 -0.00024513275
0.0085266093 -0.032149933 0.0030730125
0.0091651492 -0.03220633 0.0037711053
0.0088871894 -0.026888255 -3.4621713e-05
0.0092524681 -0.026078317 -0.00011795148
0.0083860885 -0.026262864 -1.3453464e-05
0.0077338926 -0.032072864 0.002980506
0.0079982616 -0.032138642 0.0039198864
0.0078838915 -0.027392987 1.9263447e-05
0.0079279225 -0.026797326 1.3899247e-05
0.0075465525 -0.026271665 4.5040651e-06
0.0067618629 -0.032105781 0.0029492362
0.0070104674 -0.032143541 0.0037210812
0.0070235343 -0.026923981 -2.4687426e-05
0.0065823477 -0.026344627 -5.511129e-05
0.0057556955 -0.032189585 0.0029314244
0.0061305771 -0.032184333 0.0037929653
0.0059659919 -0.026949074 -8.5718246e-05
0.0055823699 -0.026391776 -9.8821416e-05
0.0047551747 -0.032260273 0.0029050857
0.0051364386 -0.032258213 0.0037604095
0.0048726732 -0.027141517 -0.00010431941
0.0045652771 -0.026455002 -0.00011918212
0.003759508 -0.032260306 0.0028472091
0.0041518351 -0.032291509 0.0037166004
0.0038573388 -0.027601238 -0.00011225621
0.0039215451 -0.026981749 -0.00012464324
0.0035683131 -0.026459001 -0.00013234437
0.0027456693 -0.032176409 0.0027983696
0.0031741401 -0.032241102 0.0036809188
0.0026539294 -0.027718456 -8.5934931e-05
0.0030282568 -0.027100066 -0.00011659623
0.0025856551 -0.026488634 -0.00011843123
0.0019316366 -0.032091729 0.0028550765
0.0021500885 -0.032124333 0.0038047857
0.0016793455 -0.027843218 -3.4432123e-05
0.0020152847 -0.027177742 -8.9160298e-05
0.0015830831 -0.026517753 -0.00010962262
0.0013279514 -0.032055758 0.0036145016
0.00098846667 -0.03202977 0.0027287977
0.00072230119 -0.027913973 -1.0530195e-05
0.0010252642 -0.027259696 -5.3484255e-05
0.00057498785 -0.026540067 -9.3672679e-05
-0.00011080597 -0.032020286 0.0027922213
-0.00026421621 -0.027945271 7.7041477e-07
3.3185817e-05 -0.027336983 -2.2585191e-05
-0.00043356093 -0.026545301 -5.9247788e-05
-0.0010910807 -0.03202536 0.0028207877
-0.0011058194 -0.028110839 2.6333357e-05
-0.00094186468 -0.027578687 2.4319786e-05
-0.0012363316 -0.026617646 -3.5485136e-06
-0.0020598746 -0.032049242 0.0028004218
-0.0019342117 -0.02810959 5.6929086e-05
-0.0017450764 -0.027433295 6.4386157e-05
-0.0024362984 -0.02762649 6.2692023e-05
-0.0030589956 -0.032044504 0.0028103627
-0.0029711234 -0.028169921 2.7469996e-05
-0.0033766325 -0.027697634 5.067257e-06
-0.0041468856 -0.032018341 0.0029595168
-0.0041016955 -0.028102385 -4.3259446e-05
-0.0041844998 -0.027589409 -3.697037e-05
-0.0050384682 -0.032038007 0.002901898
-0.0052209897 -0.028159376 -0.00010019832
-0.00484752 -0.026870612 -9.5216601e-05
-0.0049594017 -0.027670568 -8.5409847e-05
-0.0055470853 -0.026733821 -0.00014995373
-0.0056474917 -0.032052986 0.002015935
-0.0060509248 -0.031762756 0.0011829304
-0.0060816528 -0.031390544 0.00068900111
-0.0060550421 -0.03055965 0.00018761492
-0.0058003226 -0.02989346 1.2034365e-05
-0.0063227541 -0.029036488 -6.5615342e-05
-0.0072249942 -0.031198194 0.00068089546
-0.0068281326 -0.031636659 0.0012207832
-0.0070715095 -0.030528424 0.00026138459
-0.0067945407 -0.029974978 8.3331004e-05
-0.0073397979 -0.029039988 -4.9170889e-05
-0.0082490873 -0.031105798 0.00065726798
-0.0078138215 -0.031606045 0.001333142
-0.0080938134 -0.030505586 0.00027941988
-0.0078134071 -0.030035311 0.00011394794
-0.0083492184 -0.029062787 -5.3300329e-05
-0.0092691351 -0.031056412 0.00063209358
-0.008787157 -0.031624019 0.0014117898
-0.0091000944 -0.030509816 0.00027584014
-0.0088333273 -0.03006394 0.00010228671
-0.0093419375 -0.02910451 -8.2200844e-05
-0.010267854 -0.031056684 0.00060611847
-0.0096945129 -0.031670012 0.0014720592
-0.0099783633 -0.030624202 0.00030949758
-0.0099100443 -0.030184187 0.00011742944
-0.010129383 -0.029238902 -0.00010258143
-0.010312335 -0.031633858 0.0013865266
-0.011065792 -0.031107953 0.00063639961
-0.010918541 -0.030670462 0.00033368357
-0.010645267 -0.030090449 8.013397e-05
-0.011408257 -0.030213417 9.1472226e-05
-0.012035724 -0.030676519 0.00029327587
-0.011791694 -0.031060938 0.00059403741
-0.012314435 -0.030247398 7.0773051e-05
-0.013066893 -0.030738585 0.00027392813
-0.012786486 -0.031121071 0.00059312035
-0.013312932 -0.030283686 5.6690667e-05
-0.014068266 -0.030868772 0.00029604565
-0.013788924 -0.031198299 0.00057347451
-0.014310187 -0.030318281 6.4880485e-05
-0.015074975 -0.030923426 0.00028472746
-0.014791616 -0.031231921 0.00053261773
-0.015309745 -0.030343127 6.8046873e-05
-0.015984109 -0.030901279 0.00024402497
-0.015779175 -0.031216083 0.00047928872
-0.016294751 -0.030368004 5.5101591e-05
-0.017001446 -0.030841211 0.00018236905
-0.016775459 -0.031228848 0.000488283
-0.017298661 -0.03041606 9.8304954e-06
-0.018190328 -0.030942373 0.00013996045
-0.017784687 -0.031327464 0.00052305876
-0.018313341 -0.030480051 -5.1887713e-05
-0.019213632 -0.031149767 0.00014556764
-0.01867323 -0.031435736 0.00049544277
-0.0193232 -0.030550437 -9.7382486e-05
-0.019367725 -0.031634022 0.00050836353
-0.020175721 -0.031525206 0.00028808799
-0.020011444 -0.032053709 0.00095966755
-0.020015031 -0.031078806 1.9583182e-05
-0.020307327 -0.030556804 -0.00010125688
-0.020921689 -0.031554528 0.0002919932
-0.021020379 -0.032132518 0.0011691496
-0.020644113 -0.031184714 7.8619501e-05
-0.020868041 -0.030601714 -4.5880777e-05
-0.021454681 -0.031623401 0.00048197398
-0.02146076 -0.031093361 0.00026557478
-0.0063934377 -0.031988207 0.0020396572
-0.0058508925 -0.032020424 0.0028514715
-0.0062347571 -0.028236613 -0.00011039241
-0.0059581315 -0.027703041 -0.00012764889
-0.0064527583 -0.02676885 -0.00018470826
-0.007254431 -0.031886514 0.0019486389
-0.0068487823 -0.031971019 0.0028218166
-0.0070850332 -0.028423702 -9.5711504e-05
-0.007040035 -0.027870925 -0.00013175372
-0.007231513 -0.026887879 -0.00018598694
-0.0082318708 -0.031845089 0.0019176212
-0.0078295916 -0.031939216 0.0028160198
-0.0079443036 -0.028405378 -9.3705748e-05
-0.0077181142 -0.027783548 -0.00013244129
-0.0085213697 -0.027908035 -0.00011096502
-0.0091885664 -0.031852633 0.0019022383
-0.0088389087 -0.03194977 0.0027908571
-0.0089662997 -0.028487694 -8.9225927e-05
-0.0093860626 -0.027946617 -0.00010976694
-0.010192306 -0.031808965 0.0018158484
-0.0098205302 -0.0319294 0.0027645652
-0.010065516 -0.028672924 -0.00012240036
-0.010388246 -0.028018003 -0.00014442171
-0.011272563 -0.031753115 0.001664078
-0.010818552 -0.031911347 0.002752291
-0.01109511 -0.031587761 0.0012791631
-0.011099154 -0.029190611 -0.00013197624
-0.01102173 -0.028534211 -0.00017187298
-0.01137369 -0.028036369 -0.00018271821
-0.012278089 -0.031772647 0.0016278193
-0.011835288 -0.031933282 0.0027263532
-0.011975902 -0.031566475 0.0012004761
-0.012285504 -0.029303368 -0.00014377636
-0.011937313 -0.028623523 -0.0001952673
-0.012357583 -0.028078683 -0.00020479587
-0.013285229 -0.031799488 0.0015901113
-0.012827093 -0.031960558 0.0027092914
-0.012935221 -0.031588059 0.001163451
-0.013297016 -0.029355578 -0.000104388
-0.012936821 -0.028691908 -0.00016416392
-0.013365033 -0.028081585 -0.0001454655
-0.014272975 -0.031820152 0.0015346265
-0.013997473 -0.031974476 0.0027448277
-0.013944052 -0.031654947 0.0011422789
-0.014267542 -0.029436454 -5.4311844e-05
-0.013916993 -0.028794033 -9.4428571e-05
-0.014369558 -0.028093234 -0.00010185974
-0.014672458 -0.031949524 0.0026159002
-0.014920438 -0.031826999 0.0015861024
-0.015077153 -0.031731494 0.0012564266
-0.01523097 -0.029516174 -3.7124402e-05
-0.014939101 -0.028857136 -8.3925959e-05
-0.015377067 -0.02814237 -0.00012734323
-0.015375882 -0.031896703 0.0017656484
-0.016138593 -0.031842645 0.0014936614
-0.015996497 -0.031984504 0.0026938622
-0.01615406 -0.03163413 0.00097661256
-0.016212283 -0.029587608 -3.7262929e-05
-0.015917718 -0.028926892 -7.7097349e-05
-0.016386546 -0.028157815 -0.00010973998
-0.016705442 -0.032028232 0.0025965704
-0.016775854 -0.031858291 0.0015231342
-0.017060511 -0.03169889 0.00112715
-0.017187987 -0.029673768 -9.3905728e-05
-0.016915454 -0.029021412 -9.2551272e-05
-0.017387953 -0.02818308 -0.00011073636
-0.017389663 -0.031977322 0.0017430349
-0.018100154 -0.031939141 0.0014585926
-0.017850984 -0.032113813 0.0025553126
-0.018054262 -0.031675294 0.00091799616
-0.018171154 -0.029708853 -0.00014937825
-0.017916843 -0.02907845 -0.00014083387
-0.018379522 -0.028238952 -0.00015457683
-0.019150078 -0.032121666 0.0015385729
-0.018826779 -0.032213379 0.0025796064
-0.01900344 -0.031930149 0.0011087017
-0.019193361 -0.029702278 -0.00017084615
-0.01890919 -0.029108228 -0.00016693561
-0.019381853 -0.028276073 -0.00017188433
-0.020058382 -0.032265782 0.0014908102
-0.019843094 -0.03237731 0.0024643883
-0.02005391 -0.029825792 -0.00014583423
-0.01992465 -0.029282389 -0.00014253317
-0.020183897 -0.028364636 -0.00011683507
-0.021054588 -0.032313708 0.0016059611
-0.020959938 -0.0324024 0.0024714696
-0.021007601 -0.029983778 4.8074362e-05
-0.020692138 -0.029149126 -1.685624e-05
-0.021198176 -0.029393613 0.00011726937
-0.02160031 -0.032311864 0.002294586
-0.022067536 -0.031914376 0.0016086433
-0.022026805 -0.031520657 0.00092112005
-0.021863563 -0.030634612 0.00045247181
-0.021562044 -0.029807946 0.00027490489
-0.022118481 -0.030248895 0.00056976883
-0.022511557 -0.031384256 0.001307706
-0.022502325 -0.030710153 0.0010337925
0.024851121 0.027520401 0.0064159767
0.024181243 0.027231913 0.0059622731
0.0241683 0.026987124 0.0066924798
0.023925448 -0.032460108 0.005521744
0.023058673 -0.032392833 0.0052894535
0.023244862 -0.032536104 0.0060657193
0.023914073 -0.03258314 0.0060357838
0.022657914 -0.031947918 0.005857815
0.022412954 -0.031206254 0.0053310813
0.022050519 -0.030624816 0.0042508175
0.022309305 -0.030659214 0.0047707832
0.022852665 -0.029859029 0.0040714298
0.022846334 -0.029967308 0.0044127549
0.021899799 -0.029784046 0.00382773
0.022857074 -0.029264823 0.003115508
0.022047503 -0.029216437 0.0032392121
0.022837242 -0.028431401 0.0025611008
0.021214714 -0.031294227 0.005402422
0.020629238 -0.032061122 0.0054828268
0.021496631 -0.030790638 0.0047221533
0.021371685 -0.029905407 0.0045184437
0.021289978 -0.029041916 0.003612743
0.02112761 -0.028229551 0.0030657658
0.021164732 -0.027505083 0.0026061614
0.021101449 -0.026432425 0.0022155845
0.021162093 -0.025475493 0.0016919926
0.020579407 -0.024764558 0.00051882415
0.021081347 -0.024536699 0.0011980461
0.021013569 -0.023448307 0.0008628653
0.020406185 -0.023988649 0.00032067575
0.020383574 -0.023367755 0.00020580411
0.020310143 -0.032244869 0.0056334068
0.019656684 -0.032435946 0.0054265452
0.019793181 -0.032393835 0.0062987031
0.019694775 -0.024091654 1.7385581e-05
0.020050772 -0.02281067 -4.2937114e-05
0.01973056 -0.023381278 -4.9130642e-05
0.019335337 -0.022667836 -0.00020212232
0.019237267 -0.032441195 0.0061527858
0.018933572 -0.032413527 0.0052123992
0.018591618 -0.024041606 -0.00016027564
0.018871788 -0.023377528 -0.00016301844
0.018421179 -0.02268403 -0.00024907209
0.017820247 -0.032456443 0.005227867
0.01757546 -0.024030272 -0.0002813114
0.017871866 -0.02340721 -0.00026409351
0.017441608 -0.022751704 -0.0003362156
0.016834533 -0.032518424 0.0051975851
0.016530542 -0.024012914 -0.00038750173
0.016718902 -0.023278445 -0.00040786801
0.016637683 -0.022697704 -0.00045223581
0.015829608 -0.032548286 0.0051576071
0.015483514 -0.024019489 -0.00039888997
0.015776347 -0.023422794 -0.00044906535
0.015994534 -0.021960249 -0.00053123827
0.015898723 -0.022948537 -0.000474806
0.015329407 -0.021908918 -0.00051012955
0.014829648 -0.032524053 0.005164382
0.014496838 -0.0240948 -0.00029062261
0.014909329 -0.023440287 -0.00037442509
0.015042255 -0.022676548 -0.00045417121
0.014398984 -0.022797184 -0.0003411668
0.013993311 -0.032464035 0.0052934145
0.013706803 -0.024335798 -0.00017608887
0.013881116 -0.023712952 -0.00022159776
0.013623706 -0.022863872 -0.00021770522
0.012569908 -0.032339774 0.0045812917
0.013114593 -0.032389045 0.005259899
0.01292376 -0.024336256 -0.00015129481
0.013144929 -0.023656465 -0.00014840069
0.012372826 -0.023873856 -0.00015467065
0.01166174 -0.032289576 0.0045031896
0.011946648 -0.032309603 0.0053955801
0.01174009 -0.024304319 -0.00023270656
0.011647332 -0.023782734 -0.00020905721
0.010687987 -0.032237727 0.0044373972
0.010993762 -0.032245867 0.0051967944
0.010635638 -0.02435144 -0.00032760639
0.011017023 -0.023077762 -0.00026746283
0.010869494 -0.023838645 -0.00029544765
0.010331586 -0.022942878 -0.00032288965
0.0097289188 -0.03221165 0.0043874946
0.01012076 -0.032210112 0.0053163944
0.0096307658 -0.024691749 -0.00027224288
0.0098091345 -0.023994897 -0.00030111382
0.0096130334 -0.023049574 -0.00031471788
0.0087297177 -0.032176841 0.0043574818
0.0091428114 -0.032189887 0.0053320103
0.0086705852 -0.025153197 -9.8047836e-05
0.0088594053 -0.024458015 -0.00016877752
0.0091390703 -0.023838188 -0.00024576474
0.0083297649 -0.023970336 -0.00012275345
0.0079087494 -0.032143686 0.0044230209
0.008143221 -0.032161105 0.0054736389
0.0075610345 -0.025309343 -1.0121119e-05
0.0079387734 -0.024650998 -4.6781584e-05
0.0074525503 -0.023996593 -6.1572297e-05
0.0072416728 -0.032129839 0.0051612733
0.006975593 -0.032135092 0.0042797304
0.0066078743 -0.025384899 -6.6948953e-05
0.006896704 -0.024761405 -6.4084699e-05
0.0064714933 -0.024072513 -0.00012384818
0.0058396459 -0.032168899 0.0043305885
0.0055983262 -0.025411313 -0.0001225442
0.0058959699 -0.024775565 -0.00013076462
0.0054826979 -0.024144193 -0.00019841254
0.0048514046 -0.032247502 0.0042777802
0.0045849262 -0.025464531 -0.00014735974
0.0049101575 -0.024807557 -0.00016981763
0.0044853683 -0.024189826 -0.00023482218
0.0038213963 -0.032253783 0.004237276
0.0035945117 -0.025503149 -0.00015908202
0.0039101429 -0.024849093 -0.00019029621
0.0034857439 -0.024223344 -0.00024851499
0.0028481986 -0.032176632 0.0043009818
0.0025979881 -0.02556175 -0.00014039688
0.0029250002 -0.024909927 -0.00017973363
0.002478295 -0.024239473 -0.0002300318
0.00186026 -0.03205587 0.0045694206
0.0016242359 -0.025621453 -0.00014310252
0.0019319118 -0.024997078 -0.00016434595
0.0014661555 -0.024248907 -0.00020113349
0.00056410488 -0.032015391 0.0036683544
0.0010257587 -0.032010596 0.0043305024
0.0006343117 -0.025681924 -0.00013933746
0.00093277125 -0.025076063 -0.00016036083
0.00046051899 -0.024252923 -0.00016400503
-0.00034220936 -0.031993311 0.0036030416
8.8932924e-05 -0.031982344 0.0044227401
-0.00020269072 -0.025861893 -0.00011154589
-0.00016976567 -0.025283251 -0.00012248204
-0.00033490825 -0.024345344 -0.00012234312
-0.0013328344 -0.031993814 0.0035449299
-0.00088209333 -0.031983424 0.0044371262
-0.0011604629 -0.025984244 -5.5569835e-05
-0.00084918877 -0.025275083 -9.2844275e-05
-0.0016836794 -0.025398634 -6.7859466e-05
-0.0023224847 -0.032009978 0.0035079722
-0.0018981062 -0.032023683 0.0044148099
-0.0022153147 -0.026551263 8.0670325e-06
-0.002141803 -0.025863906 -4.7351652e-05
-0.002504894 -0.02539899 -7.0493494e-05
-0.0033333045 -0.03196938 0.0034594804
-0.0028605554 -0.031995468 0.0044037607
-0.0033882116 -0.026633564 -2.9223913e-05
-0.0030510183 -0.025969535 -6.0292703e-05
-0.0034658406 -0.025454136 -0.00010277165
-0.0041469904 -0.031935036 0.0035140198
-0.0040234202 -0.031923156 0.0044847745
-0.0042997831 -0.026597332 -7.5309494e-05
-0.0040442506 -0.026015352 -9.855922e-05
-0.0044625336 -0.025506264 -0.00014833202
-0.0047199503 -0.031889036 0.0043900977
-0.0050711557 -0.031954527 0.0033502397
-0.005056127 -0.026078505 -0.00015373308
-0.0054625673 -0.025555948 -0.00018692508
0.023889862 -0.032746688 0.0069939611
0.023279291 -0.032681249 0.0074967137
0.023881279 -0.032802001 0.0073298085
0.023169622 -0.032452896 0.006559792
0.022514362 -0.031657156 0.006826601
0.022370959 -0.031042486 0.0061318744
0.022395173 -0.030372825 0.0055934121
0.022801731 -0.029732507 0.0054357694
0.021056268 -0.031360406 0.0064090649
0.020556772 -0.032086853 0.0059827575
0.020482805 -0.032075047 0.0069307811
0.02120652 -0.030899264 0.0061029363
0.021194559 -0.030373231 0.0056152265
0.020652913 -0.029652284 0.0054279338
0.020679606 -0.029252125 0.0045209001
0.020446384 -0.028527183 0.0039666025
0.020527281 -0.027788069 0.0034646713
0.020594845 -0.027006432 0.0031561991
0.02085202 -0.026091998 0.0026843564
0.020634141 -0.025210796 0.0029331779
0.021018505 -0.025046244 0.0024107511
0.021155372 -0.024122585 0.0020204477
0.021230027 -0.023225503 0.0015191324
0.020622853 -0.022555517 0.0003252941
0.021113049 -0.022310192 0.0009724265
0.02098782 -0.021257482 0.00066564349
0.020402208 -0.021780554 0.00013895033
0.020347711 -0.021151453 6.7853674e-05
0.019977905 -0.032304272 0.00703838
0.020191772 -0.029196762 0.0050820587
0.019940034 -0.028916711 0.0048561743
0.02006229 -0.028541395 0.0042735818
0.020199094 -0.027766347 0.0037581632
0.020117495 -0.026502814 0.00362704
0.019834556 -0.026840122 0.0039881025
0.020272564 -0.025774132 0.0033507363
0.019592296 -0.021812677 -0.0001613491
0.019946594 -0.020528484 -0.0001452477
0.019671494 -0.021199852 -0.00016467326
0.019218158 -0.020376995 -0.00028508218
0.018452641 -0.032461014 0.0061918208
0.019064371 -0.032420024 0.0068687303
0.019481987 -0.028251011 0.0048816958
0.019596728 -0.027472842 0.0044539925
0.018478194 -0.021772709 -0.00026665779
0.018780269 -0.02117962 -0.00025851079
0.018309928 -0.020388531 -0.00030751346
0.017622627 -0.032482117 0.0061509027
0.018040594 -0.03246709 0.0068469569
0.017480358 -0.021825405 -0.00033770071
0.017784886 -0.021233503 -0.00031098686
0.017315079 -0.020424616 -0.00034014686
0.016643703 -0.032518916 0.0061221006
0.01691274 -0.032473937 0.0069187339
0.016532741 -0.021775283 -0.00046487316
0.01676671 -0.021252081 -0.00041979109
0.016327066 -0.020503914 -0.00042866074
0.015639618 -0.032531437 0.0060634608
0.0159478 -0.032475017 0.0066905874
0.015645765 -0.021382177 -0.00047791639
0.015324749 -0.020547289 -0.00043826809
0.014645282 -0.032499228 0.0059803869
0.015059947 -0.032443713 0.0067507434
0.014579291 -0.021819271 -0.00039366476
0.014687825 -0.02123113 -0.00040137078
0.014317092 -0.020509992 -0.00036701636
0.013684287 -0.032423258 0.0058896802
0.014101893 -0.032387991 0.0067501445
0.013533697 -0.022271419 -0.00025441521
0.013735347 -0.021556731 -0.00031605293
0.013521124 -0.020594122 -0.00031925918
0.01268974 -0.03235051 0.0058478336
0.013128182 -0.032325462 0.0067902431
0.012614574 -0.022787027 -0.00018687997
0.012757621 -0.022054194 -0.00025715071
0.013009965 -0.02147999 -0.00029425762
0.012241766 -0.021632461 -0.00029560638
0.011865274 -0.03230346 0.005908607
0.012106309 -0.032274824 0.0069389506
0.011620375 -0.022806436 -0.00023182927
0.011687653 -0.022088697 -0.0002924584
0.011560248 -0.021552382 -0.00033272005
0.011210566 -0.032233611 0.0066187936
0.010921331 -0.032235306 0.0057979515
0.010725543 -0.022292063 -0.00032704609
0.010912348 -0.020822812 -0.00040812173
0.010758299 -0.021758042 -0.00036117705
0.010425461 -0.020787343 -0.00042368326
0.0098428838 -0.032197159 0.0058876341
0.0097048748 -0.022389136 -0.00031125941
0.010002875 -0.021641463 -0.00036423304
0.009251982 -0.021758247 -0.00030210553
0.0088634277 -0.032179788 0.005921179
0.008629458 -0.022903819 -0.00021256087
0.0087361299 -0.022289563 -0.00023185245
0.0083501879 -0.021726303 -0.00021380142
0.0080028055 -0.032158185 0.006019887
0.0074843429 -0.023120303 -0.0001173877
0.0078494214 -0.022461507 -0.00016662991
0.0073632989 -0.021735467 -0.00016174225
0.0065794624 -0.032127127 0.0052519711
0.0070605278 -0.032142658 0.0059312419
0.0065464452 -0.023209715 -0.00016259879
0.0068186596 -0.022586895 -0.00017106757
0.0063600298 -0.021796575 -0.00020840442
0.0056368969 -0.032146655 0.0052210358
0.0059065484 -0.032145571 0.0060292888
0.0055506779 -0.023242692 -0.00026216812
0.0058085169 -0.022618249 -0.00026220884
0.0053816559 -0.021893624 -0.00032178508
0.0046417722 -0.032185663 0.0051999181
0.0049255285 -0.032144085 0.0058296332
0.0045184987 -0.023279166 -0.00031722098
0.0048079481 -0.022599688 -0.00034919547
0.0043917652 -0.021972418 -0.00041539129
0.0036319224 -0.032155789 0.0051059914
0.0040565627 -0.032105386 0.0058845417
0.0035127103 -0.023310998 -0.00032842552
0.003820396 -0.022623189 -0.00037825911
0.0033861455 -0.021992989 -0.00041652541
0.0026183277 -0.032083433 0.0050353701
0.0030962378 -0.032038357 0.0058766124
0.0025126594 -0.023349177 -0.00029100571
0.0028399248 -0.022696916 -0.00033956743
0.0023681214 -0.02196428 -0.00032271154
0.0018281182 -0.032019153 0.0050958851
0.0019482076 -0.031987872 0.0059941439
0.0016850885 -0.023534216 -0.00023934671
0.0017643576 -0.022934595 -0.00025718403
0.0015696972 -0.022028673 -0.00022915748
0.0012649689 -0.031964522 0.0059062052
0.00089340843 -0.031984225 0.0049037095
0.00085682143 -0.023502499 -0.00019402901
0.0010941145 -0.022876751 -0.00021030862
0.0002608737 -0.023030065 -0.00015190689
-0.00023562135 -0.031976186 0.0049291239
-0.00029624859 -0.023748705 -0.000119409
-0.00061769458 -0.023067608 -9.5514944e-05
-0.001228692 -0.031995922 0.0049409475
-0.0013214508 -0.024219424 -8.6405831e-05
-0.0012346175 -0.023629593 -7.5912089e-05
-0.001596442 -0.023063093 -6.5790358e-05
-0.0022113449 -0.032025795 0.0048935902
-0.0025136457 -0.024341725 -8.8785469e-05
-0.0021423823 -0.023749942 -8.0593425e-05
-0.0025870577 -0.023112414 -8.7011322e-05
-0.0032453388 -0.031975426 0.0049258606
-0.0035048467 -0.024405533 -0.00013288751
-0.0031637023 -0.023818264 -0.0001172762
-0.0035871055 -0.02316319 -0.00012471978
-0.0040621241 -0.031926826 0.0050553042
-0.0045126248 -0.024439866 -0.00017140381
-0.004163763 -0.023865005 -0.00015913922
-0.0045828009 -0.023205802 -0.00015245265
-0.0055835205 -0.031882171 0.0044172001
-0.0049198181 -0.03188841 0.0050107045
-0.0055236826 -0.024471272 -0.00017562392
-0.0051621785 -0.023905301 -0.00016942216
-0.0055824397 -0.023230417 -0.00014733212
0.022721577 -0.032286666 0.0075205122
0.023217715 -0.032642223 0.0081534926
0.023844842 -0.03288069 0.0085401013
0.022508662 -0.031897102 0.0080879722
0.022305282 -0.031246226 0.0075518615
0.022366576 -0.030608084 0.0069648474
0.022785885 -0.029837726 0.0060603768
0.022770826 -0.030023735 0.0067730332
0.021015726 -0.031143731 0.0076375455
0.020588487 -0.031944349 0.0076415208
0.021054735 -0.030623376 0.0067973007
0.020645194 -0.029975912 0.0068355603
0.020568073 -0.029720342 0.0059978054
0.020648021 -0.024621826 0.0029099355
0.020362895 -0.023948893 0.0032095644
0.020935535 -0.023940396 0.0025700191
0.021044843 -0.022809146 0.0023308492
0.021206839 -0.021868657 0.0018849351
0.021222372 -0.021002874 0.0013375002
0.020483516 -0.020267591 0.00021872506
0.020937111 -0.020113753 0.00085650012
0.020700242 -0.019096294 0.00070385612
0.020379962 -0.019826794 0.00022562232
0.020015843 -0.018894641 0.00010073555
0.02026014 -0.032185763 0.0077592484
0.019505052 -0.032400303 0.0074773445
0.019916173 -0.032314837 0.008435254
0.020148817 -0.029519271 0.0065839798
0.020009764 -0.0293261 0.0060995044
0.019888364 -0.029023323 0.0054142904
0.019858025 -0.026309159 0.0039664297
0.01962427 -0.025604354 0.004515335
0.019897271 -0.025350317 0.0038434674
0.020104365 -0.02452608 0.0034964723
0.019496428 -0.019562263 -0.00016740494
0.019417122 -0.018952841 -0.00015879943
0.018660625 -0.032436602 0.0074095204
0.019049255 -0.032415181 0.0084087849
0.019403007 -0.028578909 0.0060276212
0.019340195 -0.027753519 0.0054813474
0.019440476 -0.027069476 0.0049552312
0.019549375 -0.026598943 0.0046751602
0.018563665 -0.019679189 -0.00030022976
0.018827092 -0.018261245 -0.00029597853
0.018525487 -0.01916858 -0.00027724184
0.018239385 -0.018231643 -0.0003432837
0.017651934 -0.032464042 0.0073889713
0.018063221 -0.032410096 0.0083550708
0.017701151 -0.019665601 -0.00031459212
0.017910356 -0.019099761 -0.0003072574
0.017476749 -0.018654672 -0.00032050759
0.01682784 -0.032441601 0.0074426532
0.017055321 -0.032352678 0.0084357783
0.016735312 -0.019620294 -0.00036866881
0.016478095 -0.018690359 -0.00035954211
0.016185386 -0.032325085 0.0081409179
0.015876491 -0.032392498 0.0073395129
0.015739651 -0.019643834 -0.0003941246
0.015323158 -0.019189347 -0.0003621779
0.014814788 -0.032352008 0.0074044466
0.014692115 -0.019798368 -0.00036588561
0.014286075 -0.019275196 -0.00032084217
0.013827364 -0.032317229 0.0074118702
0.01357061 -0.020057378 -0.00031796726
0.013258053 -0.019322891 -0.00027394784
0.012843074 -0.032272488 0.0074622761
0.012550894 -0.020511884 -0.00032146228
0.01261978 -0.019927565 -0.00030749559
0.012266004 -0.019344352 -0.00029041438
0.011822426 -0.032216456 0.0076886127
0.011498958 -0.020518167 -0.00036608288
0.011727652 -0.020009747 -0.00035331631
0.011283747 -0.019422475 -0.00037310354
0.010547467 -0.032183468 0.0066722003
0.010941507 -0.032173943 0.0074028624
0.010578789 -0.020185031 -0.00041195878
0.010268822 -0.019494658 -0.00041574516
0.0095896777 -0.032162312 0.006620652
0.010032028 -0.032123532 0.0074858675
0.0095296539 -0.020648709 -0.00036163389
0.0096289376 -0.020023987 -0.00038318464
0.0092627648 -0.019460037 -0.0003589899
0.0086122621 -0.032167256 0.0065932497
0.0090356804 -0.032119382 0.0074725472
0.0085412851 -0.020925542 -0.00025789021
0.0086535597 -0.020300694 -0.0002780318
0.0084718978 -0.019543383 -0.00025474833
0.0076496615 -0.032157157 0.0065504517
0.0080489106 -0.032129906 0.0074627213
0.0077380887 -0.020937009 -0.00018357045
0.0080160219 -0.020263638 -0.00019290071
0.0071333861 -0.020509806 -0.00014696713
0.0066468781 -0.032149464 0.0065148016
0.0070624538 -0.032136288 0.0074688559
0.0065635331 -0.020941712 -0.00018606501
0.0064672455 -0.020407364 -0.00016488001
0.00582329 -0.032147475 0.0065816143
0.0058872467 -0.032114431 0.0075087682
0.0054812981 -0.021003362 -0.00029767168
0.0058593145 -0.019678432 -0.00017676702
0.0057187462 -0.020515505 -0.00024832896
0.005035569 -0.019531867 -0.00027584014
0.0052264277 -0.032084782 0.0074000293
0.0048727989 -0.032112774 0.0063812826
0.004457077 -0.021025678 -0.00043061067
0.0047008931 -0.020498721 -0.00038611091
0.0042454493 -0.019628704 -0.00038729803
0.003748619 -0.03202593 0.0064851036
0.0034047766 -0.021025401 -0.00044162007
0.003714798 -0.02047286 -0.00043636101
0.0032709991 -0.019673787 -0.00041950998
0.0027892618 -0.031967204 0.0065789227
0.0025609997 -0.021211972 -0.00035262003
0.0027457206 -0.020664018 -0.00036733109
0.0024676817 -0.019744944 -0.00035089441
0.0019525243 -0.031962521 0.0066758562
0.0016318429 -0.021400863 -0.00022146257
0.0019362513 -0.020563517 -0.00025917566
0.0012156861 -0.020702478 -0.00014482175
0.00039154571 -0.03191603 0.0059613059
0.0010580979 -0.031949863 0.0065384349
0.00057056639 -0.021869734 -0.00012997193
0.00066845538 -0.021317903 -9.872979e-05
0.00028538099 -0.020673364 -3.8950864e-05
-0.00043077627 -0.031912364 0.0058953646
-0.0001572622 -0.031877562 0.0066618565
-0.0006070761 -0.021994822 -5.4971846e-05
-0.00022588624 -0.02147088 -4.1776912e-05
-0.00070947874 -0.020677248 4.9425398e-06
-0.0014063688 -0.031943366 0.0058493419
-0.0011036843 -0.031880714 0.006482101
-0.0015756735 -0.0221129 -4.0304007e-05
-0.0012478675 -0.021589005 -1.8650218e-05
-0.0017175982 -0.020706072 6.1703759e-08
-0.0024093678 -0.031973146 0.0058115413
-0.0020103855 -0.031895507 0.0065408475
-0.002541021 -0.022186734 -6.6249893e-05
-0.0022542123 -0.021666924 -3.9267572e-05
-0.0027175557 -0.020747967 -2.1018994e-05
-0.0034047896 -0.031928688 0.00571445
-0.0029571895 -0.03188435 0.0065344907
-0.0033653295 -0.022365088 -9.169976e-05
-0.0033031884 -0.021858724 -6.7124754e-05
-0.0035044232 -0.020867424 -1.9149689e-05
-0.0043648137 -0.031891134 0.0056476346
-0.0039517116 -0.03186037 0.0065293931
-0.0041830521 -0.02233213 -9.4508061e-05
-0.0039809789 -0.021728756 -4.3516717e-05
-0.004756907 -0.021921489 -5.8875557e-05
-0.0053594727 -0.031864136 0.0055815261
-0.0049300194 -0.031835441 0.0065478985
-0.0052384445 -0.022394285 -0.00010709753
-0.0056388704 -0.021961734 -7.6487333e-05
0.023838429 -0.032876845 0.0087287063
0.023972733 -0.032954969 0.0085920813
0.023058496 -0.03260066 0.0087906197
0.023275187 -0.032704681 0.0097724125
0.023805186 -0.032835744 0.009676544
0.022798557 -0.029917348 0.0078769308
0.022731896 -0.030006843 0.0079262219
0.022734867 -0.02997203 0.0077881711
0.022513518 -0.03205831 0.0094355987
0.022275105 -0.031393841 0.0089407898
0.022297101 -0.030840216 0.0081760921
0.020983212 -0.031277299 0.0086536054
0.020555444 -0.031997327 0.0083203446
0.020476833 -0.031992428 0.0091152061
0.021034664 -0.030741893 0.0083248727
0.020924626 -0.030461166 0.0080231009
0.020343605 -0.029768059 0.0075198109
0.020472616 -0.02307279 0.0030388627
0.020590555 -0.022442773 0.0028096647
0.020260273 -0.021708272 0.0030575199
0.020883119 -0.02176404 0.0023815446
0.020977968 -0.020621531 0.0021713974
0.02100819 -0.019681295 0.0016822453
0.020810785 -0.018797677 0.0011877948
0.019891314 -0.018237229 0.00013978587
0.020598706 -0.017940763 0.00096212432
0.020074535 -0.017400457 0.00034512184
0.019842444 -0.032277849 0.0091282912
0.020029962 -0.029543424 0.007395003
0.019804589 -0.029246913 0.0066517633
0.019668676 -0.024604393 0.0046043363
0.019526247 -0.025196683 0.0051875855
0.019769557 -0.02401082 0.0041843923
0.019950233 -0.023172326 0.0037085284
0.020093398 -0.022197068 0.0033584889
0.019440759 -0.018177113 -0.00012943381
0.019866982 -0.017094508 0.00017081223
0.019254455 -0.017413689 -0.0001881643
0.019415554 -0.016747465 -0.00010646405
0.018788069 -0.032376718 0.0089842426
0.019380167 -0.028784014 0.0073050903
0.019268272 -0.028083919 0.0068107941
0.01928648 -0.027407533 0.0062623709
0.019341331 -0.026588356 0.0057411278
0.019459307 -0.025969939 0.0052555385
0.018405687 -0.017648244 -0.00033569554
0.018777808 -0.016070064 -0.00038643979
0.018451393 -0.017009282 -0.00036070257
0.018113438 -0.015986603 -0.00046334157
0.017697087 -0.032311443 0.0091429204
0.017411653 -0.018071607 -0.00034045835
0.017558685 -0.017392468 -0.00036659971
0.017795049 -0.016786398 -0.00041831334
0.017052159 -0.016917622 -0.00039709872
0.016811768 -0.032270402 0.0090535823
0.016478095 -0.018690359 -0.00035954211
0.016636038 -0.017590526 -0.00035990687
0.016167477 -0.016957678 -0.00036336487
0.015497012 -0.032286473 0.0081877839
0.01601726 -0.03224957 0.0090615014
0.015477264 -0.018712372 -0.00035276572
0.015676051 -0.017769808 -0.00033925381
0.015178783 -0.016982559 -0.00032524753
0.014551742 -0.032293856 0.0081594624
0.014992589 -0.032272197 0.0090642879
0.014262325 -0.018294845 -0.00029443938
0.014645899 -0.017779937 -0.00031091974
0.014171151 -0.016986001 -0.00028902985
0.013564056 -0.032276347 0.0081086298
0.01400208 -0.032276295 0.009037571
0.013273897 -0.01833795 -0.00023904321
0.013627607 -0.017785713 -0.00025181493
0.013155405 -0.016973542 -0.00024204298
0.012564896 -0.0322299 0.0080918502
0.013029677 -0.032233611 0.0090339761
0.012306605 -0.018422144 -0.00025101629
0.012618513 -0.017874032 -0.00023610589
0.01214498 -0.016998492 -0.00024423568
0.011764285 -0.032189682 0.008168268
0.01198251 -0.032173268 0.0091479793
0.011327672 -0.018466074 -0.00033103846
0.011604516 -0.017939501 -0.000285494
0.011153249 -0.017062277 -0.0003021236
0.011159971 -0.032129336 0.0089121023
0.010839257 -0.032142445 0.0079984926
0.01031038 -0.018473236 -0.00039134041
0.0106038 -0.01795641 -0.00034877786
0.010152043 -0.017123401 -0.0003506511
0.0097338874 -0.032086495 0.0080598462
0.0094603691 -0.018646477 -0.00037394749
0.0094999298 -0.018105853 -0.00035051376
0.0093617337 -0.017243352 -0.00033424029
0.0087641319 -0.032084417 0.0080937669
0.0085008629 -0.018801684 -0.00025081207
0.0088566234 -0.018076148 -0.00029282307
0.0079849754 -0.01821503 -0.00018286082
0.0077854991 -0.032104723 0.0080938693
0.0074397437 -0.019354627 -0.00013777835
0.0075578857 -0.018739976 -0.00013995767
0.0071757687 -0.018198956 -0.00011657887
0.0067720097 -0.032106273 0.0080923541
0.0063429838 -0.019417869 -0.00014103037
0.0066522085 -0.018874839 -0.00012826738
0.0062075313 -0.018253546 -0.00014098948
0.005740636 -0.032046512 0.0083038239
0.0056410823 -0.01894776 -0.00019239032
0.0052135466 -0.018335676 -0.00022831418
0.0043261051 -0.031992551 0.0073904968
0.0049156649 -0.031995334 0.0080410941
0.0046154531 -0.018954249 -0.00030580821
0.0042151753 -0.018402865 -0.00032222338
0.003520526 -0.031923544 0.0072728926
0.0039916513 -0.031885117 0.0081162741
0.0036370484 -0.018967886 -0.00038193748
0.0032289503 -0.018434949 -0.0003497141
0.0025627641 -0.031911712 0.0072338786
0.0030157445 -0.031828597 0.0081405882
0.00250783 -0.019163236 -0.0003408292
0.002203078 -0.018463409 -0.00030250673
0.0016028685 -0.031952348 0.0072101643
0.0019858908 -0.0318636 0.0081042638
0.0014596283 -0.01966596 -0.00020320911
0.0015702285 -0.019033376 -0.00024485041
0.0011963402 -0.01840893 -0.00019316465
0.00059492793 -0.031936262 0.0071679275
0.00099980924 -0.031886745 0.0080612022
0.00049774256 -0.019951481 -6.9718306e-05
0.00065826206 -0.019334456 -0.00011539581
0.00040033413 -0.018470209 -8.5127613e-05
-0.00022510719 -0.031867363 0.007216061
8.9807436e-06 -0.031825125 0.0081948759
-0.00031278329 -0.019961806 -1.8906219e-05
-8.0563594e-05 -0.019286187 -4.1778534e-05
-0.00086025242 -0.019476278 -6.7152068e-06
-0.00084858807 -0.03178345 0.0079626497
-0.0011665286 -0.031838786 0.0070829936
-0.0013525235 -0.020055925 -6.493854e-06
-0.0017582369 -0.019525567 -1.3028606e-05
-0.0022688 -0.031851683 0.0071165478
-0.0023362201 -0.020113958 -1.3949862e-05
-0.0027433578 -0.019558463 -1.130686e-05
-0.0032672305 -0.031839967 0.007125631
-0.0034526312 -0.020305427 -1.4208217e-06
-0.0037613765 -0.019605139 5.2740652e-06
-0.0042393887 -0.031828549 0.0071282042
-0.0044862553 -0.020773625 1.0215505e-05
-0.0044010221 -0.020172855 2.3302362e-05
-0.0047605671 -0.019613042 4.2010643e-06
-0.00525804 -0.031816561 0.0070818136
-0.0056711943 -0.02085584 -2.6215106e-05
-0.0053157844 -0.020277636 -4.3544833e-06
-0.0057528447 -0.019663019 -2.7440838e-05
0.024804972 -0.032843444 0.0097414944
0.024756163 -0.032447111 0.010668008
0.023760121 -0.032583352 0.010689048
0.023015477 -0.032385804 0.010672089
0.022423141 -0.031727895 0.010408906
0.022256458 -0.0310391 0.0097700069
0.022341419 -0.030476717 0.0090570515
0.022692261 -0.029962938 0.0090632839
0.020924423 -0.031181591 0.009813535
0.020538531 -0.031826735 0.0098367129
0.020943291 -0.030602839 0.0091988351
0.020365652 -0.029863684 0.0089833746
0.020277439 -0.029750749 0.0084058233
0.020418569 -0.02079422 0.0028501179
0.020588513 -0.020221733 0.0026419077
0.020336349 -0.019444738 0.0031342101
0.020715417 -0.019198008 0.0024747341
0.02077616 -0.01833388 0.0020154123
0.020697748 -0.01747172 0.0015270533
0.020075668 -0.016709076 0.00038306741
0.020571211 -0.016526079 0.0011355017
0.020031927 -0.016258528 0.00032528018
0.020204628 -0.032100361 0.010045208
0.019427942 -0.032372523 0.0097395685
0.01979256 -0.032225166 0.010593804
0.020055782 -0.029631974 0.0086740311
0.019773003 -0.029311212 0.0080283806
0.019608445 -0.023898447 0.0055078287
0.019507471 -0.024694256 0.0060284636
0.019662336 -0.023440899 0.0050319214
0.019731954 -0.022656914 0.0045361444
0.019848999 -0.021798136 0.0040472783
0.020000309 -0.020919867 0.0035567735
0.020167459 -0.020248817 0.0032359392
0.019830035 -0.015446051 9.5001335e-05
0.019360034 -0.015934689 -0.00015908241
0.019755371 -0.014959195 4.2979285e-05
0.019290702 -0.015320423 -0.00021593695
0.019117581 -0.014545755 -0.00020434367
0.018499743 -0.032343876 0.0096607506
0.018939491 -0.032352719 0.010579707
0.019226644 -0.028550263 0.0082915034
0.019227218 -0.027756574 0.0076291081
