# .PCD v0.7 - Point Cloud Data file format
VERSION 0.7
FIELDS x y z
SIZE 4 4 4
TYPE F F F
COUNT 1 1 1
WIDTH 1309
HEIGHT 1
VIEWPOINT 0 0 0 1 0 0 0
POINTS 1309
DATA ascii
0.079217665 0.048988923 -0.016689468
0.091785938 0.039974108 -0.027142901
0.092030466 0.039424002 -0.027141273
0.093045369 0.039245851 -0.027145701
0.080040872 0.05010768 -0.017714545
0.079826489 0.049752876 -0.016710002
0.092056759 0.040947817 -0.02709835
0.092450827 0.040371157 -0.02714026
0.093441188 0.039939549 -0.027156943
0.080604702 0.050928146 -0.017785341
0.080413736 0.050559655 -0.016726959
0.092207924 0.041859236 -0.02707349
0.092703015 0.041421384 -0.027127439
0.093050756 0.040875737 -0.027160781
0.093342312 0.041542459 -0.027181396
0.081112847 0.051808026 -0.017830759
0.080950685 0.051452786 -0.016812921
0.093165182 0.042286012 -0.027191546
0.093820855 0.042322669 -0.027266003
0.081559666 0.05271202 -0.017826566
0.081406817 0.052367713 -0.016888877
0.09375231 0.043094132 -0.027305325
0.094403185 0.043126866 -0.027309403
0.08186011 0.053439882 -0.01778516
0.081843913 0.053384081 -0.017201439
0.09423621 0.044115052 -0.02721394
0.094778255 0.043772556 -0.027212445
0.082350142 0.054278132 -0.017335678
0.094262287 0.045081552 -0.026919778
0.094755456 0.044390142 -0.027047802
0.094727695 0.045031548 -0.026801024
0.082988881 0.054881372 -0.017326072
0.093628362 0.04714638 -0.025964309
0.093926251 0.046477042 -0.026276015
0.094160952 0.046953119 -0.02568575
0.094566256 0.045789734 -0.026380373
0.083802596 0.055210467 -0.017458575
0.084220886 0.055169981 -0.017974472
0.084822781 0.054969788 -0.018837268
0.089514136 0.051459327 -0.02179046
0.089076787 0.051818322 -0.021523543
0.090093598 0.05095413 -0.022392616
0.090724111 0.050407134 -0.022922512
0.091362663 0.049849361 -0.023444289
0.091998026 0.049274541 -0.02396358
0.092613079 0.048665628 -0.02447699
0.093225077 0.048037041 -0.024975073
0.093799807 0.047410708 -0.025389846
0.085543603 0.054606378 -0.018572353
0.086150914 0.054186039 -0.019234717
0.086793564 0.053686932 -0.019788619
0.087444991 0.053157404 -0.020317039
0.087960742 0.052736044 -0.02088422
0.088464744 0.05232564 -0.021166109
0.073826581 0.042204339 -0.014837524
0.08858414 0.031286262 -0.026778288
0.088849604 0.030697772 -0.026761964
0.089780629 0.030581886 -0.026789097
0.074362144 0.042846911 -0.014735393
0.089143403 0.032108501 -0.02680842
0.089390196 0.031537142 -0.026796754
0.090377033 0.031391073 -0.026804194
0.075212613 0.043971457 -0.015676865
0.074926756 0.043571673 -0.014869389
0.089484163 0.032900639 -0.026800361
0.089847423 0.03248594 -0.026809415
0.090770632 0.03208546 -0.026811175
0.075794868 0.044704396 -0.015773481
0.075538889 0.044382144 -0.014914037
0.089977354 0.03355151 -0.026808305
0.090371914 0.032990254 -0.026808888
0.090682425 0.03370773 -0.026836537
0.076402582 0.045468304 -0.015859066
0.07623966 0.045315504 -0.014847155
0.09054184 0.0344133 -0.026886381
0.091171689 0.034458272 -0.026913475
0.076992884 0.04621622 -0.015944019
0.076834366 0.046073046 -0.015093029
0.091109015 0.035226934 -0.026967239
0.091727979 0.035264172 -0.026973922
0.077603608 0.047004294 -0.016021002
0.077356212 0.046743393 -0.015015841
0.091664203 0.036077745 -0.026993582
0.092305727 0.036085978 -0.027003808
0.078124121 0.047655411 -0.015994005
0.078027375 0.047536798 -0.014963929
0.092199005 0.036922652 -0.027009293
0.092879958 0.036914445 -0.027040312
0.078553423 0.048145313 -0.015244098
0.078723922 0.048373416 -0.016181154
0.092747666 0.03774729 -0.027066939
0.093446597 0.037737008 -0.027092606
0.079428621 0.049232528 -0.016156528
0.093307525 0.038572025 -0.027119312
0.094021209 0.038552251 -0.02712477
0.080016911 0.0500114 -0.016179891
0.093814448 0.039598599 -0.027145628
0.09459462 0.039398599 -0.027157184
0.080575272 0.050836474 -0.016226158
0.094060749 0.040675461 -0.02720673
0.094500899 0.04027788 -0.027198929
0.09515921 0.040215369 -0.027250566
0.081061326 0.051699057 -0.016308447
0.094684117 0.041698679 -0.027310129
0.094985664 0.041045807 -0.027306566
0.095671311 0.041040886 -0.027388053
0.081306376 0.052180141 -0.016332328
0.08165963 0.052968249 -0.016538057
0.081427164 0.052480724 -0.0154581
0.095328405 0.042517588 -0.027299641
0.095613755 0.041859187 -0.027360387
0.096308783 0.041842923 -0.027360145
0.082000896 0.053736638 -0.016562112
0.08184047 0.053432912 -0.01557951
0.095608585 0.043550398 -0.027059752
0.095893912 0.042501546 -0.027235184
0.096672989 0.042229198 -0.027237223
0.082540922 0.054542683 -0.01662213
0.082402758 0.054404441 -0.015667226
0.0954924 0.04480819 -0.026561549
0.095950715 0.043801524 -0.026851779
0.095927477 0.044664484 -0.026474411
0.096552528 0.043166209 -0.026921507
0.083110102 0.055005424 -0.016792513
0.082874373 0.054902572 -0.015913909
0.09480615 0.046274185 -0.02583513
0.095249236 0.045621932 -0.026112393
0.095838636 0.045055088 -0.02625839
0.096031666 0.045476206 -0.025789442
0.083683722 0.055288423 -0.016236017
0.084226266 0.055277079 -0.01670075
0.084691659 0.05512584 -0.017091399
0.085026301 0.054933764 -0.017912982
0.08961881 0.051485054 -0.020718992
0.089125216 0.05196438 -0.019828191
0.088795155 0.052118186 -0.02069262
0.090083234 0.051095225 -0.02100368
0.090551868 0.050665118 -0.021537878
0.091158018 0.050112788 -0.022068568
0.091804676 0.049565107 -0.022592274
0.092463426 0.049022656 -0.023114445
0.093102053 0.048450552 -0.023633454
0.093734786 0.047866873 -0.024150066
0.094356909 0.047273085 -0.024656547
0.094975345 0.046630416 -0.025141388
0.095632173 0.046027325 -0.025386572
0.085417368 0.054753643 -0.017320633
0.086059026 0.054290101 -0.01782174
0.086592197 0.053907767 -0.018389054
0.087235466 0.053410076 -0.018936299
0.087896131 0.052887514 -0.01946556
0.088382766 0.052483156 -0.020133978
0.074016355 0.042370118 -0.014222201
0.073755026 0.042057466 -0.013336173
0.090141155 0.029827738 -0.026806533
0.090468153 0.029293407 -0.026816066
0.090894222 0.030058507 -0.026814926
0.074594475 0.043124482 -0.014286167
0.074366398 0.042843677 -0.013262324
0.090691641 0.030704804 -0.026804432
0.091374315 0.030715235 -0.026802137
0.075172484 0.043908957 -0.014367657
0.074958459 0.043648742 -0.013302963
0.09117578 0.031718906 -0.026803331
0.091939405 0.031538181 -0.026806884
0.075778723 0.044741958 -0.014408785
0.075539522 0.044466138 -0.013372032
0.091428071 0.0328288 -0.026814349
0.091871604 0.032397922 -0.026814625
0.092546292 0.032333966 -0.02682469
0.076273695 0.045408897 -0.014370861
0.076126769 0.045271937 -0.013289079
0.092073113 0.033811625 -0.026864674
0.092297554 0.033188649 -0.026826296
0.093126617 0.033142079 -0.026838504
0.076668851 0.04598663 -0.0136724
0.076842234 0.046134442 -0.014562682
0.0926558 0.034648541 -0.026932884
0.092852525 0.034056306 -0.026883386
0.09369269 0.033966139 -0.026892398
0.077572308 0.047012568 -0.014539424
0.093217641 0.035479661 -0.02697969
0.093413681 0.034889687 -0.026937872
0.094254501 0.03478739 -0.026955593
0.078132518 0.047648683 -0.014430523
0.093743198 0.036311977 -0.027018085
0.093965769 0.035719257 -0.026981372
0.094817288 0.035616867 -0.027027791
0.079031549 0.048722703 -0.01522509
0.07870771 0.048324496 -0.014514958
0.094273925 0.037132397 -0.027068671
0.094519421 0.036549173 -0.027036719
0.09538424 0.036443211 -0.027090602
0.079581484 0.049452543 -0.015317075
0.079332277 0.049133539 -0.014521275
0.094806097 0.03795829 -0.02712898
0.095052309 0.037378035 -0.027098794
0.095948756 0.03726716 -0.027157098
0.080145292 0.050256863 -0.015392754
0.079891235 0.049945045 -0.014579466
0.095322013 0.038801447 -0.027187549
0.095622338 0.038205061 -0.027184919
0.096492656 0.03809569 -0.02724836
0.080688201 0.051089928 -0.015453633
0.080448993 0.050778225 -0.01464875
0.095846198 0.039631441 -0.027276903
0.096160688 0.039027639 -0.027263155
0.097048469 0.038927868 -0.02733089
0.081057899 0.051747046 -0.015490444
0.081019484 0.051733345 -0.01483299
0.096422061 0.040433448 -0.027423596
0.096734881 0.03985548 -0.027390584
0.097593352 0.039762028 -0.027433217
0.081507012 0.052681498 -0.014908934
0.096897796 0.041138023 -0.027466128
0.097302034 0.040806666 -0.027437001
0.097971968 0.040474612 -0.027431602
0.081899039 0.053526346 -0.015065035
0.097278565 0.04204822 -0.027153714
0.097706027 0.041252151 -0.027326059
0.097933128 0.042035554 -0.027038084
0.082210295 0.054156929 -0.015082594
0.082529426 0.054612659 -0.015154324
0.082356423 0.054452009 -0.014171874
0.09675815 0.044137396 -0.026369456
0.097155519 0.043145359 -0.026716517
0.097707003 0.042478323 -0.026875436
0.097731456 0.042979464 -0.026621563
0.082849905 0.05499161 -0.014495553
0.083103143 0.055031359 -0.015391698
0.09657529 0.044932209 -0.025932511
0.097066119 0.044332862 -0.026121048
0.097169943 0.044885166 -0.025550801
0.097579993 0.043760978 -0.026231533
0.084073529 0.055354893 -0.015409503
0.084543027 0.055242032 -0.015730741
0.084791385 0.055108152 -0.016655151
0.089977451 0.051278077 -0.019671297
0.0895022 0.051725961 -0.019165792
0.09041293 0.05088662 -0.020201094
0.090995543 0.050378665 -0.020698158
0.091612987 0.049842548 -0.021219205
0.092254803 0.049289823 -0.021740869
0.092915565 0.048752032 -0.022263627
0.093570873 0.048203524 -0.022785168
0.094214514 0.047638848 -0.023304688
0.094860077 0.047075372 -0.023823628
0.095498912 0.04650094 -0.02433954
0.096135981 0.045922607 -0.024830725
0.096803032 0.045301903 -0.025226008
0.085382007 0.054872196 -0.01599676
0.085880086 0.054518133 -0.016471056
0.086384617 0.054105565 -0.017024778
0.087031655 0.053634513 -0.017556144
0.08770071 0.053162891 -0.018089836
0.088369437 0.052648243 -0.018617997
0.08881171 0.05226212 -0.019228762
0.073971987 0.042371493 -0.012796704
0.09159223 0.029077826 -0.026844215
0.074557215 0.043125413 -0.012782788
0.092219912 0.030098429 -0.026817903
0.075128876 0.043908678 -0.012815712
0.092709742 0.030940477 -0.02682793
0.075706571 0.044713795 -0.012842976
0.093243957 0.031748857 -0.026850689
0.076212846 0.045404725 -0.012789881
0.093585856 0.032536171 -0.026847344
0.077077404 0.046489857 -0.013600716
0.076796927 0.046159666 -0.012953771
0.094139688 0.033156391 -0.026873793
0.077712059 0.047198698 -0.013732564
0.077542551 0.047044273 -0.012873691
0.094848156 0.034046646 -0.026949305
0.078348957 0.047911465 -0.013857706
0.078164309 0.047743674 -0.013062084
0.095402233 0.035026822 -0.027071346
0.078963287 0.048656419 -0.013956327
0.078719929 0.048407666 -0.012947427
0.095966369 0.035869919 -0.027144132
0.079549603 0.04945818 -0.014024215
0.079336628 0.049174342 -0.012972945
0.096341036 0.036662016 -0.027178289
0.0801026 0.05029263 -0.014088269
0.079935707 0.05000554 -0.013076525
0.097086519 0.037345916 -0.027261414
0.080657855 0.051149357 -0.014170947
0.080478258 0.050844885 -0.013137978
0.097657137 0.038330842 -0.027352452
0.081170887 0.052053861 -0.014229655
0.08097963 0.051737778 -0.013211638
0.098034546 0.039107956 -0.027412513
0.081614777 0.052981451 -0.014227627
0.081450239 0.052652318 -0.013304539
0.098628372 0.039954852 -0.027376615
0.081929103 0.05370751 -0.014182515
0.081898786 0.053661354 -0.013570281
0.098678119 0.041327655 -0.027061027
0.099075198 0.040753335 -0.027108168
0.082365707 0.05447321 -0.013632121
0.098444417 0.042741403 -0.026467104
0.0989393 0.04167974 -0.02681233
0.099803567 0.041037638 -0.026777942
0.099826202 0.041515425 -0.026555641
0.083414182 0.055314414 -0.014585396
0.082952335 0.05506951 -0.013789365
0.097824953 0.044259071 -0.0257263
0.098234981 0.043625586 -0.026004113
0.099102162 0.042875767 -0.026084986
0.099000759 0.04342987 -0.025689226
0.099542797 0.042302594 -0.02622545
0.083834887 0.055459499 -0.014021711
0.084441714 0.055391923 -0.014310621
0.084775373 0.055189744 -0.01513103
0.090187997 0.051171806 -0.018635614
0.089786753 0.051543776 -0.018411333
0.090795286 0.050623044 -0.019311976
0.091415383 0.050099544 -0.019848881
0.092059068 0.04956504 -0.020369381
0.092708968 0.049021412 -0.020890884
0.093366593 0.048479743 -0.021412805
0.094028667 0.047939897 -0.021935105
0.094675951 0.047381181 -0.022455275
0.095331147 0.046831507 -0.022976622
0.09597896 0.04627246 -0.023496352
0.096631169 0.045719169 -0.024013668
0.097294755 0.045173563 -0.0245208
0.097940937 0.044569597 -0.025012055
0.098604105 0.043957412 -0.025312189
0.085619628 0.054792158 -0.01496342
0.086196661 0.054360352 -0.015646044
0.086670473 0.053964004 -0.016225118
0.087418124 0.053417094 -0.016620131
0.087995514 0.0530046 -0.017272975
0.088639729 0.052527465 -0.017687233
0.088968679 0.052201398 -0.018547434
0.074096605 0.042577211 -0.011897061
0.073841728 0.042312756 -0.011227958
0.074700378 0.043340717 -0.012017619
0.074546702 0.04316847 -0.011101203
0.07528726 0.044139016 -0.012107331
0.0751312 0.043929964 -0.01133981
0.075867765 0.044929713 -0.012180857
0.075650737 0.044627517 -0.011274351
0.076444805 0.045709647 -0.01226606
0.076233782 0.045409776 -0.011327907
0.077067561 0.046501003 -0.012350524
0.076843403 0.046189986 -0.011405954
0.077597454 0.047124833 -0.012327306
0.077541098 0.047019854 -0.011354074
0.078008369 0.047614247 -0.011531515
0.078203149 0.047830127 -0.012517136
0.078929715 0.048682198 -0.012486482
0.079545513 0.049431697 -0.012479097
0.080105007 0.050228734 -0.012504747
0.080612421 0.051082365 -0.012578575
0.081109218 0.051978417 -0.012693694
0.081506118 0.052735299 -0.012875311
0.081789538 0.053429864 -0.012764545
0.082057402 0.054047517 -0.012935948
0.081952818 0.053705864 -0.012064882
0.082570657 0.05481796 -0.013028789
0.082478784 0.054673776 -0.012087187
0.10020407 0.040994659 -0.026624998
0.08313147 0.055265319 -0.01323247
0.082931496 0.055174351 -0.012342157
0.099487856 0.043015312 -0.02569098
0.10014495 0.042303082 -0.02582367
0.10010654 0.042720906 -0.025387794
0.10063358 0.041665725 -0.02600619
0.083851844 0.055512425 -0.012653338
0.084477834 0.055416912 -0.013281349
0.084881447 0.055277646 -0.013542634
0.085063465 0.055160057 -0.014379282
0.088378936 0.05278372 -0.01566158
0.087807812 0.053249136 -0.015229737
0.087588035 0.0533376 -0.015956577
0.088040292 0.053004019 -0.01626095
0.089528792 0.051840089 -0.016767532
0.089006558 0.052291177 -0.016327163
0.089004569 0.052262612 -0.017298551
0.089360505 0.051950708 -0.017618101
0.0900831 0.051331125 -0.017483715
0.090702809 0.050776538 -0.017892638
0.091207758 0.05033822 -0.018446358
0.091841377 0.04980972 -0.01899055
0.092490949 0.049271975 -0.019516654
0.093153156 0.048740465 -0.020039819
0.093817391 0.048207562 -0.020562395
0.094477728 0.047664084 -0.021084201
0.095123373 0.047104068 -0.021604303
0.095783748 0.046562932 -0.022126403
0.096449994 0.046029937 -0.022649165
0.097106792 0.045482837 -0.023169953
0.097766384 0.044938855 -0.023689371
0.098419793 0.044381201 -0.02420567
0.099056244 0.043793488 -0.024697691
0.099639982 0.043242939 -0.02503496
0.085581519 0.054905627 -0.013873033
0.08611422 0.054529764 -0.014243819
0.086625382 0.054139692 -0.014793893
0.087089837 0.053738005 -0.01549335
0.088321894 0.052786052 -0.01683324
0.074082203 0.042621512 -0.010621576
0.073815197 0.042327523 -0.0097467005
0.074600078 0.043249913 -0.010583779
0.074505068 0.043163501 -0.0095739979
0.07498952 0.043780714 -0.0097722858
0.075162768 0.043984748 -0.010783827
0.075849198 0.044899497 -0.01080576
0.076454461 0.04567486 -0.01083447
0.077082455 0.046430841 -0.010825118
0.077632964 0.0470789 -0.010710575
0.078519687 0.04823551 -0.011529403
0.078167096 0.047779925 -0.010839282
0.079085231 0.048900839 -0.011656456
0.078808613 0.048595078 -0.01089411
0.079697289 0.049659263 -0.011771265
0.079406478 0.049364734 -0.010906233
0.080256604 0.050471228 -0.011848725
0.08010564 0.050318707 -0.010837696
0.080779001 0.051331483 -0.011896757
0.080670327 0.051117852 -0.011118827
0.081280269 0.052194733 -0.011922201
0.081132576 0.051865719 -0.011089176
0.081654623 0.052892841 -0.011952821
0.081646524 0.052819841 -0.011266684
0.082042359 0.053763565 -0.011370968
0.082284495 0.054354079 -0.011427391
0.08265999 0.054930694 -0.011564016
0.082499668 0.054673132 -0.010593465
0.082978517 0.055231981 -0.0109636
0.083174594 0.055278525 -0.011753891
0.10061027 0.04228713 -0.025383208
0.10131209 0.0416734 -0.025482964
0.10128133 0.041941557 -0.025036795
0.084182985 0.055489644 -0.011666996
0.084887527 0.055271007 -0.012344843
0.085171454 0.055134598 -0.012936806
0.088622548 0.052643888 -0.01486575
0.088035427 0.053137347 -0.014639882
0.088699043 0.052537106 -0.015984522
0.089148194 0.05218327 -0.015570467
0.089856349 0.051581301 -0.016000789
0.090387084 0.051130734 -0.016563959
0.091001816 0.05057843 -0.017097265
0.0916254 0.050031614 -0.017610071
0.092259511 0.049498219 -0.018136857
0.09291669 0.048965082 -0.01866194
0.093587272 0.048442319 -0.019185923
0.09425725 0.047916397 -0.019709529
0.094920918 0.047379043 -0.020231998
0.095567293 0.046822112 -0.020752573
0.096234903 0.04629058 -0.021275768
0.096903309 0.0457597 -0.021798529
0.097560517 0.045213532 -0.022319868
0.098213181 0.044659629 -0.022840206
0.098866336 0.044106647 -0.023360204
0.099508762 0.04353822 -0.023876712
0.10014176 0.042969484 -0.024372771
0.10071182 0.042487539 -0.024682885
0.085992299 0.054676622 -0.013075242
0.086415619 0.054372594 -0.013516344
0.086986825 0.053949688 -0.014030853
0.087444223 0.05357188 -0.01467777
0.074043289 0.042610116 -0.0091333352
0.074573703 0.043259673 -0.009033069
0.07544823 0.044387303 -0.0097508356
0.0751101 0.043962419 -0.0091525037
0.075995237 0.045082659 -0.0098582394
0.075752668 0.044788599 -0.0092113446
0.076628439 0.045847256 -0.010001946
0.076478548 0.045663916 -0.0091273841
0.077261157 0.046596736 -0.010113569
0.077086173 0.046386674 -0.0093385931
0.07785593 0.047340062 -0.010202669
0.077631138 0.047053516 -0.0092327613
0.078435071 0.048131794 -0.0102887
0.078234069 0.047855217 -0.0092833284
0.079030633 0.04892718 -0.010358006
0.078811847 0.048657984 -0.0093364213
0.079635561 0.049744189 -0.010397961
0.079393834 0.049466178 -0.009392621
0.080136761 0.050410472 -0.010361435
0.08003597 0.050317407 -0.009347681
0.080519885 0.050947934 -0.0096066445
0.080687217 0.051160991 -0.010560572
0.081211478 0.051992394 -0.010660868
0.081554532 0.052582733 -0.010558654
0.081833765 0.053223066 -0.010700198
0.081669763 0.05282845 -0.009676205
0.082089923 0.053896599 -0.010696197
0.0820916 0.053884327 -0.0099041853
0.082664572 0.054781288 -0.0098595005
0.083455883 0.055443712 -0.01104475
0.083104528 0.055210143 -0.010174923
0.10174596 0.04159072 -0.025052387
0.084066197 0.055519324 -0.010425955
0.084806941 0.055339616 -0.010930669
0.085390322 0.055042394 -0.011507442
0.08586286 0.054753508 -0.012546599
0.086176358 0.054562215 -0.011936001
0.086495459 0.054332092 -0.012926664
0.087104611 0.05391892 -0.012377352
0.08708974 0.053894971 -0.013466299
0.087812677 0.053379275 -0.012956424
0.087637372 0.053468332 -0.01398428
0.088396579 0.052880473 -0.013644781
0.088987917 0.052358229 -0.014098687
0.089494884 0.051923674 -0.014663532
0.090131201 0.051399976 -0.015200878
0.090777762 0.05086014 -0.0157186
0.091410607 0.050317936 -0.016245343
0.092041358 0.049751043 -0.016765561
0.092686646 0.049198497 -0.017286504
0.093334563 0.048648842 -0.017808761
0.094002284 0.048120759 -0.018332446
0.09467414 0.047596034 -0.018855341
0.095341079 0.047064934 -0.01937828
0.096005045 0.046531051 -0.019900864
0.096678853 0.046007372 -0.020423949
0.097348586 0.045479216 -0.020947238
0.098004445 0.044931546 -0.021468721
0.098652162 0.044371303 -0.021989107
0.099296659 0.043808427 -0.022509282
0.099948898 0.0432548 -0.023029655
0.10044967 0.042806644 -0.023589931
0.10098974 0.042358421 -0.024024736
0.10125783 0.042109922 -0.024496373
0.074202813 0.042786118 -0.0083584003
0.073976167 0.042454928 -0.0075676553
0.074784473 0.043541756 -0.0084494054
0.074562877 0.043242622 -0.0075297076
0.075371243 0.044324115 -0.0085421335
0.075233236 0.044209056 -0.0074867737
0.076007247 0.045119651 -0.0086143296
0.075830646 0.044971257 -0.0077560246
0.076530568 0.045748301 -0.0085871331
0.076411277 0.045708116 -0.0075560994
0.076909363 0.046275932 -0.0077701937
0.077124596 0.046457335 -0.0087832231
0.077841677 0.0473295 -0.0087484661
0.078416646 0.048109546 -0.0087650735
0.078986324 0.048909247 -0.0088196341
0.0795848 0.049715593 -0.0088516679
0.080105826 0.050400175 -0.0087845214
0.080946378 0.051546067 -0.0095572006
0.080636062 0.05112914 -0.0089294054
0.0813068 0.052122049 -0.0095958114
0.081264354 0.052086812 -0.0090781637
0.081722945 0.052977514 -0.009149503
0.081945963 0.053556576 -0.009152336
0.082323715 0.054321654 -0.0093756858
0.082086377 0.053907223 -0.0083716437
0.082716681 0.054883674 -0.0093488693
0.082623199 0.054808147 -0.0083826594
0.0830983 0.055289403 -0.0086712725
0.083359845 0.0553145 -0.0096009076
0.10194286 0.041670583 -0.023139793
0.10144926 0.042094357 -0.022790482
0.1014844 0.042011749 -0.023605514
0.10185585 0.041699454 -0.023891557
0.10252839 0.041178565 -0.023807278
0.084423535 0.055525586 -0.0094448961
0.08515574 0.055229098 -0.010132715
0.085863732 0.054813635 -0.01067787
0.086549111 0.054336786 -0.011199122
0.087267168 0.053813901 -0.011702729
0.087978423 0.053277321 -0.012221023
0.088635221 0.052731704 -0.012767075
0.089258328 0.052168913 -0.013300266
0.089881435 0.051627882 -0.013819855
0.090525217 0.051108412 -0.01434797
0.09117794 0.050569929 -0.014871551
0.091835707 0.050032966 -0.015394429
0.092481039 0.049477875 -0.015915886
0.093126088 0.048917048 -0.016436145
0.093773954 0.048359107 -0.016956521
0.094431654 0.047815017 -0.017478112
0.095096819 0.047282673 -0.018001387
0.095767118 0.046757706 -0.018525122
0.096441947 0.046236955 -0.019048402
0.097113982 0.045712054 -0.019571669
0.097788125 0.045190595 -0.020095345
0.098452441 0.044654079 -0.020617589
0.099100903 0.04409574 -0.02113794
0.099747345 0.043535132 -0.021658309
0.10025247 0.043090906 -0.022223037
0.10077669 0.042627957 -0.022783818
0.074197844 0.042745844 -0.0070203785
0.074747078 0.043533176 -0.0070423093
0.075050794 0.044009574 -0.0070106555
0.075381011 0.044494256 -0.006996803
0.075601727 0.044909075 -0.006286934
0.075851232 0.045067448 -0.0071996842
0.076455101 0.045821719 -0.0071193594
0.07742133 0.046866771 -0.0077781677
0.077032596 0.046477325 -0.0072231703
0.077986173 0.04754211 -0.0079072453
0.077704236 0.047260895 -0.0072244741
0.078564614 0.04833401 -0.0079967286
0.078300744 0.048042946 -0.0072304886
0.079150781 0.049139045 -0.0080842171
0.078890704 0.048845809 -0.0072713085
0.079745673 0.049921457 -0.0081685688
0.079589799 0.04977281 -0.0071929656
0.080318674 0.050699688 -0.0082493201
0.080171712 0.050535113 -0.0074288417
0.080879964 0.051522411 -0.0083412826
0.080659688 0.051259235 -0.0073599257
0.081419781 0.052391212 -0.0084060337
0.081189595 0.05208781 -0.0074071232
0.081771813 0.053089753 -0.0084384345
0.08172819 0.053104661 -0.0076320115
0.082150042 0.05404868 -0.0077665299
0.082643948 0.054837488 -0.0078690611
0.083727896 0.05557349 -0.0087515358
0.083193198 0.055348933 -0.0079976004
0.1017951 0.041895334 -0.021820292
0.10123657 0.042377889 -0.021371728
0.10115209 0.04238712 -0.022106269
0.10235519 0.041404583 -0.022309579
0.10286797 0.040978711 -0.022881962
0.084240772 0.05564082 -0.008166898
0.085073479 0.055408746 -0.0087089986
0.085646629 0.05505896 -0.00928705
0.086326167 0.054594532 -0.009836968
0.0869959 0.054079361 -0.010363933
0.087663203 0.053545862 -0.010883769
0.088341564 0.053016905 -0.011404177
0.089014836 0.052484974 -0.011929104
0.089657448 0.0519218 -0.012453509
0.090297513 0.051360592 -0.012975119
0.090945899 0.050813075 -0.013497498
0.091600411 0.050273418 -0.014020283
0.092269741 0.04974794 -0.014543645
0.092928588 0.049205493 -0.015065512
0.093576089 0.048645403 -0.015585603
0.094216898 0.048074216 -0.016104966
0.094858602 0.047509633 -0.016624801
0.095533036 0.046989109 -0.017148606
0.096214332 0.046478368 -0.017673394
0.096885152 0.045950707 -0.018196326
0.097549155 0.04541561 -0.018718809
0.098222479 0.044891033 -0.019241868
0.098882295 0.044349149 -0.019763408
0.099538088 0.043802716 -0.020285198
0.10004653 0.043364607 -0.020850591
0.10060745 0.042875562 -0.021397609
0.074675195 0.043593105 -0.0060086008
0.076022826 0.045452982 -0.0062341299
0.076615453 0.046148721 -0.0063575935
0.077262394 0.046867486 -0.0065028332
0.077902049 0.047611095 -0.0066135023
0.078496702 0.048398443 -0.0066849776
0.079113543 0.049211308 -0.0067356713
0.079621658 0.049866606 -0.0067016724
0.080180667 0.050606422 -0.0068871751
0.080759145 0.051461771 -0.0069298111
0.081073448 0.051967818 -0.0068783481
0.081446342 0.052603651 -0.0070376769
0.081853665 0.053450558 -0.0070923604
0.081636816 0.053137481 -0.0060030594
0.082225986 0.054394513 -0.0070571806
0.082004339 0.054079376 -0.006237803
0.082795173 0.055171624 -0.007152183
0.082509011 0.0549521 -0.0065317731
0.08338967 0.055547975 -0.0073799342
0.083032861 0.055505928 -0.0064967778
0.10167994 0.04210034 -0.020585246
0.10119042 0.042529881 -0.019858688
0.1009687 0.042628627 -0.02078896
0.102182 0.041680403 -0.020964069
0.10267371 0.041238938 -0.021504307
0.1032934 0.040734742 -0.022030938
0.084069997 0.055770233 -0.0067579914
0.084822632 0.055568516 -0.0073395334
0.085429169 0.055271029 -0.0079196561
0.086130023 0.054846473 -0.0084572416
0.086789995 0.054350734 -0.0089905187
0.087446511 0.053814322 -0.0095166676
0.08809258 0.053257521 -0.01003762
0.088759571 0.052724063 -0.010559976
0.089433804 0.052198887 -0.011082778
0.090089053 0.051649213 -0.01160462
0.090737507 0.051091976 -0.012125837
0.091388285 0.050539304 -0.012647148
0.092048958 0.050001591 -0.013169711
0.092719533 0.049475268 -0.01369294
0.093378447 0.048931547 -0.014214622
0.09402246 0.048366621 -0.014734544
0.09465766 0.047789522 -0.015253568
0.095298968 0.04722397 -0.01577335
0.095976092 0.046704058 -0.016297515
0.096663795 0.046202384 -0.016821813
0.097324252 0.045661174 -0.017344108
0.097982764 0.045118898 -0.0178662
0.098647669 0.04458195 -0.01838878
0.09929885 0.044030167 -0.018910047
0.099964067 0.043496672 -0.019432498
0.10043024 0.043097012 -0.020150943
0.10188136 0.042038828 -0.019468978
0.10142712 0.042403977 -0.019221226
0.10248224 0.041528955 -0.020137856
0.1030876 0.041000925 -0.020660732
0.10372294 0.040480193 -0.021185834
0.085175775 0.055451743 -0.0065374263
0.085877001 0.055040948 -0.0070813783
0.086558178 0.054575667 -0.0076147746
0.087234005 0.054074474 -0.0081421379
0.087899745 0.053548858 -0.0086674355
0.088545889 0.052990846 -0.0091883037
0.089200117 0.052439488 -0.0097093638
0.089861624 0.051898789 -0.010231378
0.090518974 0.051353745 -0.010753045
0.091174528 0.050806228 -0.011274671
0.091834858 0.050265174 -0.011796726
0.092498191 0.049728043 -0.012319067
0.093165196 0.049195744 -0.0128417
0.093817554 0.048643183 -0.013362776
0.094461501 0.048078299 -0.013882646
0.09510497 0.047513701 -0.014402647
0.095756084 0.046959609 -0.014923476
0.096423447 0.046425812 -0.015445912
0.097093619 0.045898549 -0.015969299
0.097755894 0.045362208 -0.016491301
0.098424762 0.044833466 -0.017014405
0.098939881 0.044402897 -0.01758072
0.099546343 0.043889832 -0.017992247
0.10010399 0.04341853 -0.018820098
0.10062338 0.043004084 -0.019390965
0.10060597 0.043106962 -0.017298166
0.10007522 0.043598931 -0.016580017
0.099931896 0.043619931 -0.017583352
0.10046981 0.043171119 -0.018097751
0.10106054 0.042743724 -0.017758699
0.10103223 0.042743351 -0.018429741
0.10173023 0.042227451 -0.018312247
0.10237442 0.041709974 -0.018716931
0.10288061 0.041269656 -0.019270157
0.10350666 0.040739279 -0.019811299
0.10415503 0.040201291 -0.020335507
0.086307392 0.054780915 -0.0062370412
0.086979978 0.054275863 -0.0067649018
0.08766102 0.053774845 -0.007291453
0.088338889 0.05326166 -0.0078158714
0.088997148 0.052718334 -0.0083380155
0.089643151 0.052156866 -0.0088581555
0.090293415 0.051600911 -0.0093790516
0.090950824 0.0510558 -0.0099007767
0.091612913 0.050517149 -0.010422871
0.092279971 0.049984816 -0.010945411
0.092942946 0.049445592 -0.011467338
0.093600541 0.048900329 -0.011988858
0.09425661 0.048353728 -0.012510518
0.094902836 0.047792085 -0.013030935
0.095548436 0.047230832 -0.013551032
0.096208572 0.046687521 -0.014072679
0.096863717 0.046135552 -0.014593368
0.097518265 0.045587555 -0.015114689
0.098186001 0.045059465 -0.015638154
0.098865628 0.044546321 -0.016162589
0.099373795 0.044125836 -0.016848521
0.1009158 0.042940702 -0.01635858
0.10046496 0.043366048 -0.015866375
0.10138222 0.042536639 -0.01688911
0.10201286 0.042052183 -0.017409964
0.10267242 0.041526973 -0.017922657
0.10330424 0.04098931 -0.018433245
0.10393676 0.040455874 -0.018959405
0.10458516 0.03991054 -0.019483866
0.088093102 0.053476796 -0.0064387601
0.088770941 0.052962396 -0.0069633741
0.089431927 0.052423287 -0.0074857101
0.090087265 0.051875919 -0.0080071781
0.090739824 0.051322091 -0.008527901
0.091390714 0.050766945 -0.0090485644
0.092051998 0.050226454 -0.0095705073
0.09271729 0.049691632 -0.01009292
0.093377188 0.049148455 -0.01061463
0.094026491 0.048593175 -0.011135511
0.094686702 0.048052195 -0.011657596
0.095343567 0.04750504 -0.012179023
0.095994525 0.046951033 -0.012699755
0.096653894 0.046406988 -0.013221655
0.097301461 0.04584568 -0.013742018
0.097799361 0.045394264 -0.014306126
0.098532297 0.044834062 -0.014773691
0.09930028 0.044271998 -0.015309758
0.09975709 0.04390585 -0.0159248
0.099312127 0.044316527 -0.013785133
0.098941565 0.044616506 -0.013410347
0.098922536 0.044577006 -0.014097136
0.099320203 0.044300109 -0.014245629
0.10115926 0.042853598 -0.015333584
0.10075703 0.0432023 -0.015105929
0.10176303 0.042280998 -0.016004737
0.10239846 0.041764889 -0.016545635
0.10305385 0.041236829 -0.017068628
0.10371186 0.040702343 -0.017588446
0.1043724 0.040172055 -0.018109985
0.10502614 0.039628148 -0.018632516
0.08920873 0.05267252 -0.006111702
0.089873031 0.052137189 -0.0066340622
0.090531319 0.051592689 -0.0071556307
0.091187552 0.051043563 -0.0076766834
0.091831796 0.050478511 -0.008196177
0.092484124 0.049925976 -0.0087171178
0.093149185 0.049392551 -0.0092400573
0.093810022 0.04885108 -0.0097623896
0.094456598 0.048290435 -0.010282367
0.095114671 0.04774493 -0.010803636
0.095776901 0.047206182 -0.011325836
0.096437231 0.046666317 -0.011847885
0.097106941 0.04613813 -0.012371181
0.097763777 0.045589782 -0.012892812
0.098152399 0.045201592 -0.013583528
0.099550128 0.044121761 -0.014751457
0.099886693 0.043847565 -0.015290588
0.099677309 0.044127673 -0.01296548
0.099204995 0.044500567 -0.012714436
0.099912748 0.043888777 -0.014180679
0.10031321 0.043628559 -0.013642136
0.10033418 0.043578528 -0.014332052
0.10105312 0.043032493 -0.014202679
0.10169277 0.04246597 -0.01459354
0.10218171 0.042003803 -0.015142247
0.10281576 0.041470192 -0.01568627
0.10346945 0.040934429 -0.01621313
0.10413288 0.040403247 -0.01673617
0.10480409 0.03988019 -0.017259048
0.10546773 0.03934294 -0.017780883
0.090982422 0.051319145 -0.0063046161
0.091625914 0.050752103 -0.006824499
0.09226542 0.050181799 -0.0073439423
0.092912741 0.04962302 -0.0078643952
0.093581252 0.04909208 -0.0083873328
0.094250321 0.048560802 -0.0089094024
0.094893515 0.047996424 -0.0094294101
0.095541134 0.047437415 -0.0099501964
0.096202761 0.046897862 -0.010472415
0.09687268 0.046370793 -0.010995379
0.097555339 0.045861609 -0.011519875
0.098077625 0.045441832 -0.012087157
0.098585285 0.045004524 -0.012441093
0.099652991 0.044239882 -0.011698
0.099044479 0.044756249 -0.01113891
0.098928005 0.044793513 -0.011926636
0.10018884 0.043791197 -0.012171376
0.10069808 0.043381467 -0.012739036
0.10134628 0.042851087 -0.013288766
0.10198789 0.042270239 -0.013801122
0.10261087 0.041712165 -0.014308356
0.1032502 0.041183759 -0.014834933
0.10390794 0.040650215 -0.015360223
0.10457464 0.040121596 -0.015884329
0.10524041 0.039586525 -0.016406259
0.10589918 0.039040539 -0.016927451
0.092704535 0.049893454 -0.0064920988
0.093352623 0.04933418 -0.0070124026
0.094012216 0.04878879 -0.0075338837
0.094667919 0.04823998 -0.0080553796
0.09531986 0.047690183 -0.0085762553
0.095832266 0.047256671 -0.0091419108
0.096499339 0.046706747 -0.0095179528
0.097111247 0.046209347 -0.010333983
0.097835295 0.045673072 -0.010833098
0.09840478 0.045229025 -0.011478189
0.09743543 0.046009704 -0.0085928794
0.096775293 0.046552707 -0.0081448723
0.096827492 0.046471309 -0.0091191866
0.097341031 0.046040587 -0.0096163116
0.097961605 0.045574378 -0.0092114825
0.098040342 0.045520518 -0.010107655
0.098674037 0.045055892 -0.0097072758
0.098625004 0.045082927 -0.010657907
0.099364087 0.044528522 -0.010327656
0.099982917 0.044027369 -0.010812616
0.10049395 0.043582451 -0.011366671
0.10110416 0.04307387 -0.011892615
0.10175073 0.042566761 -0.012424128
0.10239436 0.042009074 -0.012947397
0.10303455 0.041440859 -0.013464728
0.10368671 0.040894583 -0.013984712
0.10435139 0.040367402 -0.014508473
0.10501996 0.039839979 -0.015032083
0.10567728 0.039293699 -0.015553745
0.10631755 0.038723998 -0.016073909
0.09380424 0.049061533 -0.0061610583
0.094452374 0.048500959 -0.0066817552
0.094949968 0.048047341 -0.0072462093
0.095631167 0.047475662 -0.0076363459
0.096179262 0.04701525 -0.0085395947
0.096659154 0.04668897 -0.0068434477
0.096077412 0.047223724 -0.0062125232
0.095974527 0.047230847 -0.0071850661
0.096386895 0.046873856 -0.007721575
0.097116232 0.046306752 -0.0073766261
0.097731426 0.045815695 -0.00784369
0.098251119 0.045380592 -0.0083985273
0.098901674 0.044886142 -0.0089344773
0.099584103 0.044375189 -0.0094668977
0.10024276 0.043839455 -0.0099968649
0.10087541 0.043307394 -0.010519622
0.10151407 0.042786706 -0.011045963
0.10217302 0.04226575 -0.011570629
0.10283267 0.041733474 -0.012094263
0.10347961 0.041173723 -0.012615239
0.10411853 0.040602617 -0.013133887
0.10477198 0.040052935 -0.013655564
0.1054441 0.039530415 -0.014178544
0.10610749 0.038993344 -0.014700901
0.1067528 0.038431063 -0.015221709
0.095401138 0.047766022 -0.0065114703
0.09738078 0.046134021 -0.0065308083
0.09798564 0.045616485 -0.0070481412
0.098617479 0.045092721 -0.0075656977
0.099262103 0.04457517 -0.0080932416
0.099933758 0.044064712 -0.0086207315
0.10060796 0.043547772 -0.0091468059
0.10126974 0.043015264 -0.0096704923
0.10193231 0.042488307 -0.010194182
0.10260147 0.041968927 -0.010718161
0.10326868 0.041442413 -0.011241937
0.10392518 0.040895529 -0.011763321
0.10456496 0.040326156 -0.012283128
0.10520758 0.039759755 -0.012802463
0.10586748 0.039218955 -0.013325147
0.10654113 0.03869779 -0.01384859
0.10720047 0.038152616 -0.014369868
0.09835916 0.045325033 -0.0062002558
0.098990388 0.044770073 -0.0067194086
0.099644192 0.044235725 -0.0072427504
0.10031369 0.043716095 -0.0077669825
0.10099748 0.043212142 -0.008292241
0.10167836 0.04270174 -0.0088165645
0.1023528 0.042182375 -0.0093411207
0.10302211 0.041654527 -0.0098640993
0.10368942 0.041124448 -0.010386603
0.1043513 0.040585931 -0.01090854
0.10500065 0.040032968 -0.011430077
0.10565556 0.039484669 -0.011952164
0.10631395 0.038940113 -0.012473911
0.10698329 0.03840984 -0.012996426
0.10764299 0.037866756 -0.013518477
0.10005306 0.04391592 -0.0063896179
0.10072086 0.043387815 -0.0069130063
0.10139704 0.042869773 -0.0074369479
0.10207788 0.042358231 -0.0079604071
0.10276852 0.04186298 -0.008485768
0.10343894 0.041336641 -0.009010097
0.10409757 0.040794265 -0.0095325317
0.10475831 0.040255308 -0.010055138
0.10542553 0.039725274 -0.010577584
0.10610158 0.039203785 -0.011100097
0.10676316 0.03866303 -0.011622515
0.10741962 0.038113773 -0.012143381
0.10806843 0.037557553 -0.012664374
0.10115917 0.043096486 -0.0060596876
0.10181043 0.042542219 -0.0065814778
0.10247534 0.042007703 -0.0071039367
0.10316916 0.041516345 -0.0076287501
0.10385256 0.041009072 -0.0081535727
0.10452434 0.040485479 -0.0086778682
0.10518532 0.039945181 -0.0091998167
0.10585055 0.03941039 -0.0097225327
0.10652557 0.038889546 -0.010245463
0.10718675 0.038349096 -0.010767575
0.10783887 0.037796684 -0.011289304
0.10848741 0.037240691 -0.011810096
0.10289431 0.041692037 -0.0062493049
0.10356914 0.041173548 -0.0067749768
0.1042511 0.040663686 -0.0072985832
0.10493258 0.040151734 -0.0078225173
0.10560314 0.039623093 -0.0083440617
0.10626995 0.039090905 -0.0088669006
0.10693376 0.038554657 -0.0093904212
0.10759641 0.038018044 -0.0099122431
0.10810971 0.037587531 -0.010478698
0.10885397 0.036983266 -0.010876615
0.10960762 0.03643126 -0.0097497143
0.10909382 0.036822725 -0.0095113777
0.10913937 0.036776211 -0.010276239
0.10467981 0.040355928 -0.0064447001
0.10534593 0.039821833 -0.0069665294
0.10600714 0.039283734 -0.007489156
0.10653429 0.038872834 -0.0080564432
0.10719901 0.038343433 -0.008479476
0.10777687 0.037868172 -0.0092231147
0.1083846 0.037377667 -0.0099782553
0.10798642 0.037714317 -0.0074324533
0.10751908 0.0380807 -0.0070914794
0.10757673 0.038037617 -0.0080011655
0.10802156 0.037682205 -0.0085446052
0.10867465 0.03718999 -0.0081711709
0.10861722 0.037208751 -0.0089615621
0.10932209 0.036682505 -0.0087421741
0.10998875 0.036170349 -0.0091612972
0.10562947 0.039629396 -0.0061569512
0.10613899 0.039193995 -0.006655544
0.10677261 0.038681071 -0.0075776763
0.10671395 0.038756508 -0.0062065534
0.10707907 0.0384501 -0.0065030828
0.10773325 0.03793883 -0.0063538663
0.10839006 0.037429936 -0.0067559853
0.10894287 0.037023224 -0.0073115174
0.10960757 0.036523394 -0.0078686308
0.11027069 0.035996284 -0.0083891507
0.092050903 0.028619707 -0.026885863
0.092659958 0.028604772 -0.026900383
0.092474468 0.029413035 -0.026844883
0.093254536 0.029404741 -0.026868679
0.09299925 0.030299108 -0.02684186
0.093846209 0.030228306 -0.026881587
0.09353517 0.031149788 -0.02686665
0.094432697 0.031040268 -0.026900645
0.094002649 0.032083098 -0.026866002
0.094835937 0.031735763 -0.026888937
0.094484694 0.032596275 -0.026858168
0.09486077 0.033309203 -0.02688593
0.095312625 0.033842351 -0.026954051
0.096251771 0.033937912 -0.027022326
0.09569744 0.034508608 -0.027059913
0.096756376 0.034402099 -0.02712306
0.096279301 0.035313148 -0.027158959
0.097271144 0.035162799 -0.027204718
0.096860535 0.036297258 -0.0272047
0.097658999 0.035858043 -0.027218275
0.09728501 0.036794409 -0.027231406
0.097748868 0.03732131 -0.027291588
0.098507836 0.037242536 -0.027329009
0.097965606 0.037820909 -0.027351629
0.098979853 0.037674557 -0.027399555
0.098476388 0.038753562 -0.027409915
0.0993338 0.038344488 -0.027439151
0.098958716 0.039266095 -0.027407367
0.09937422 0.039975516 -0.027251422
0.099699587 0.040307622 -0.027093306
0.093509592 0.027997244 -0.026903313
0.093708865 0.027400907 -0.026881389
0.094584428 0.027301297 -0.026889153
0.093800969 0.02879623 -0.026882084
0.094214961 0.028435841 -0.026873462
0.094993472 0.027999166 -0.026874684
0.094267592 0.029443508 -0.026887923
0.094587669 0.028920908 -0.026872296
0.094983548 0.029717825 -0.026894413
0.094992787 0.030368317 -0.026922964
0.095461428 0.030143594 -0.026934873
0.095341541 0.03142738 -0.026918944
0.096414171 0.030201808 -0.027019929
0.095740676 0.030911747 -0.026958399
0.096735135 0.030579267 -0.027057519
0.095535293 0.032482665 -0.026886588
0.096007302 0.031938754 -0.026932675
0.096341565 0.031386588 -0.026993224
0.096668527 0.03205036 -0.026980191
0.096139133 0.033286605 -0.026946206
0.096436389 0.032770582 -0.026949301
0.097172067 0.032805175 -0.026994126
0.096974723 0.033656824 -0.027047921
0.097709119 0.033637214 -0.027085301
0.097574778 0.034475278 -0.027165039
0.098265871 0.034456432 -0.0271695
0.098084264 0.035484213 -0.027206939
0.098833516 0.035300102 -0.027207989
0.09827204 0.036357149 -0.027241401
0.09876363 0.036117144 -0.027249433
0.099403113 0.036107797 -0.027296867
0.099259026 0.036943514 -0.027354784
0.099934518 0.036938287 -0.027407635
0.099790707 0.037935387 -0.027432878
0.10050991 0.037786014 -0.027450655
0.099884078 0.038928345 -0.027368262
0.10039485 0.03873831 -0.027348913
0.10095496 0.038470145 -0.02735468
0.10025188 0.039956626 -0.027025647
0.1007591 0.039178289 -0.027193405
0.10094403 0.039919637 -0.026867829
0.1007124 0.04044446 -0.026683129
0.10097245 0.040963583 -0.026319873
0.095194131 0.026738666 -0.026925758
0.095441237 0.026185343 -0.0269411
0.0965041 0.026004698 -0.026961725
0.095494956 0.027703986 -0.026910264
0.095832691 0.027121194 -0.026947279
0.096891165 0.026704134 -0.026989557
0.095685571 0.028731732 -0.026912652
0.096148767 0.028205544 -0.026949104
0.096544534 0.027644113 -0.026984122
0.096778348 0.028273938 -0.027002309
0.09630841 0.029575743 -0.026990198
0.096608236 0.029028805 -0.027008004
0.097289331 0.029072469 -0.02705431
0.097111978 0.030070376 -0.027067712
0.09784396 0.029913802 -0.027082488
0.097365394 0.031194614 -0.027058586
0.097817235 0.030741284 -0.027084801
0.098444022 0.03071454 -0.027124448
0.097947679 0.032226253 -0.027037192
0.098273374 0.031531341 -0.027091444
0.099019058 0.031523522 -0.027142156
0.098466992 0.033043202 -0.027077748
0.098784566 0.032396194 -0.027090676
0.099613793 0.032344293 -0.027148735
0.099051781 0.033843093 -0.027151696
0.099328414 0.033252947 -0.027136978
0.10019544 0.033160951 -0.027179785
0.099622957 0.034690015 -0.027194861
0.099875137 0.034082815 -0.027177069
0.10078794 0.033975814 -0.027202401
0.10015515 0.035508145 -0.027288195
0.10040674 0.034936734 -0.027240148
0.10135849 0.034803271 -0.027265437
0.10072052 0.036321934 -0.027423764
0.10098562 0.035769057 -0.027377268
0.1018635 0.035642158 -0.027415775
0.10133953 0.037155639 -0.027468683
0.10160778 0.036553547 -0.027475171
0.10242333 0.036464114 -0.027486624
0.10168049 0.038160086 -0.027288802
0.10202768 0.037464522 -0.027363995
0.10274621 0.036927544 -0.027440432
0.10164644 0.03935821 -0.026891608
0.10204186 0.038714256 -0.026999671
0.10285336 0.037714988 -0.027192302
0.1028059 0.038204789 -0.027017329
0.10148232 0.040361792 -0.026471194
0.10191547 0.03961822 -0.026692007
0.10277307 0.039023113 -0.026699301
0.10283528 0.039539557 -0.026462037
0.10190942 0.040912919 -0.025870856
0.10253163 0.040276729 -0.026083803
0.096751973 0.02536305 -0.026928158
0.097472675 0.025326077 -0.026951415
0.097261973 0.026362911 -0.026986517
0.098037623 0.026172498 -0.027006947
0.097501695 0.027454108 -0.027031938
0.097954646 0.02703543 -0.027041333
0.098622814 0.026971545 -0.027059555
0.098132126 0.028455608 -0.0270788
0.098400332 0.027816517 -0.027079551
0.099171273 0.027785208 -0.027119437
0.098661542 0.029310722 -0.0271171
0.098965265 0.028662251 -0.027129861
0.099731073 0.028618747 -0.02719659
0.099197365 0.030131923 -0.027174994
0.099515207 0.029494362 -0.027188536
0.10030402 0.029438734 -0.027242739
0.09976121 0.030950325 -0.027199237
0.10005513 0.030323826 -0.027217073
0.10089843 0.030248784 -0.027250227
0.10029527 0.031782094 -0.02719133
0.10058007 0.031162851 -0.027210161
0.10151377 0.031054744 -0.027238533
0.10063677 0.032545868 -0.027196936
0.10101981 0.032140762 -0.027206153
0.10192158 0.031747054 -0.027227689
0.10115261 0.033200439 -0.027208336
0.10153151 0.032648865 -0.027206287
0.10186058 0.033360548 -0.02721123
0.10169718 0.034092326 -0.027234977
0.10235487 0.034112412 -0.027261579
0.10242115 0.034961898 -0.027357925
0.10290591 0.034698837 -0.02734999
0.10286996 0.035787504 -0.027473204
0.10386806 0.0347693 -0.027401932
0.10318841 0.035461549 -0.027438529
0.10426841 0.035220053 -0.02744036
0.10337773 0.03671775 -0.027346488
0.10381176 0.036013849 -0.027424984
0.1039438 0.036545005 -0.027336825
0.10335074 0.038051907 -0.026931588
0.1037441 0.037163623 -0.027176064
0.10391536 0.038043093 -0.026818706
0.10323681 0.039039467 -0.026555017
0.10369857 0.038446948 -0.026682597
0.1039641 0.03903633 -0.026276488
0.10252693 0.041012481 -0.025032198
0.10231492 0.041284911 -0.024474438
0.10310523 0.040335458 -0.025598228
0.10367806 0.039619751 -0.025940392
0.098203421 0.024735564 -0.02697606
0.098508328 0.024121601 -0.026986813
0.099376589 0.024032723 -0.027012194
0.098776586 0.0255598 -0.027014039
0.099054307 0.024954144 -0.027015813
0.099965796 0.024846012 -0.027036618
0.099329755 0.026379602 -0.027064011
0.099594027 0.02579632 -0.027052954
0.10054359 0.025669388 -0.027089883
0.099868231 0.027212923 -0.027142983
0.10015737 0.026634499 -0.027132502
0.1010904 0.026498782 -0.027176853
0.10042872 0.028025925 -0.027227521
0.10071761 0.027455613 -0.027209602
0.10165107 0.027326278 -0.027247038
0.10099702 0.028854337 -0.027282929
0.1012706 0.02827522 -0.027277347
0.10221096 0.028146755 -0.02731977
0.10155202 0.029684432 -0.027297825
0.1018526 0.029096095 -0.027326487
0.10278513 0.028967109 -0.027366824
0.10191277 0.030466823 -0.027274158
0.10225719 0.030002572 -0.027302908
0.10320885 0.029651221 -0.027339704
0.10237064 0.031302489 -0.02725856
0.1028324 0.030609028 -0.027292803
0.10312016 0.031260904 -0.027290978
0.10258695 0.032466918 -0.027244054
0.10305962 0.03201424 -0.027281366
0.10366101 0.032007918 -0.027326394
0.10320038 0.033495929 -0.027274942
0.10352737 0.032804664 -0.027304705
0.1042105 0.032819025 -0.027379578
0.10375734 0.034228206 -0.027339704
0.10406591 0.033644915 -0.027345158
0.1047941 0.033646204 -0.027413148
0.10457034 0.034686126 -0.027389683
0.10543247 0.034466885 -0.027344994
0.10467989 0.035933185 -0.027300682
0.10507756 0.035519235 -0.027269147
0.10578372 0.034878656 -0.027253155
0.10466392 0.037371829 -0.026894461
0.10506498 0.036707319 -0.027000267
0.10586275 0.035698157 -0.027037609
0.10576303 0.036283605 -0.026909221
0.10457516 0.038374003 -0.026431296
0.10498639 0.037640229 -0.026668962
0.10573926 0.036982264 -0.026642106
0.10574792 0.037526872 -0.026388044
0.10320596 0.04068131 -0.02422036
0.10370398 0.040240504 -0.024773438
0.10427776 0.039620325 -0.025292026
0.10484066 0.038884845 -0.025772579
0.10544121 0.038177043 -0.026044816
0.099837407 0.023411319 -0.027005287
0.10013282 0.022992691 -0.027004458
0.10114618 0.022602599 -0.027004417
0.10033977 0.024070626 -0.027026251
0.10076602 0.023527501 -0.027016738
0.10100985 0.024173802 -0.027045492
0.10107171 0.024994206 -0.027092505
0.10154077 0.024743633 -0.02711919
0.10166142 0.025907015 -0.027181353
0.10252746 0.024825161 -0.027200617
0.10191032 0.025407344 -0.027178776
0.10314643 0.025385138 -0.027258348
0.10204332 0.026706165 -0.027244959
0.10234009 0.026310384 -0.027248887
0.10341419 0.025931891 -0.02728348
0.1025508 0.027382679 -0.027292546
0.10300919 0.026828494 -0.027284812
0.10326361 0.027482215 -0.027312901
0.10311955 0.02824758 -0.027357232
0.10379244 0.028260041 -0.027339146
0.10362884 0.029279314 -0.027347393
0.10436841 0.029104372 -0.027346682
0.10385703 0.030398287 -0.0273309
0.10430536 0.029951945 -0.027345959
0.10497402 0.029903378 -0.027365452
0.10444704 0.031402133 -0.027387818
0.10473521 0.030753868 -0.027380012
0.10553194 0.030724641 -0.027417526
0.10499498 0.032234266 -0.027475789
0.10529175 0.03161259 -0.027471548
0.10607062 0.031554841 -0.027516615
0.10555992 0.033071719 -0.027495738
0.10587792 0.032424156 -0.027539598
0.10664693 0.032371309 -0.027563393
0.10592457 0.033840459 -0.027403072
0.10633928 0.03334073 -0.027458683
0.1070775 0.033064004 -0.027482161
0.10629244 0.034624279 -0.027181339
0.10681473 0.033849403 -0.027330957
0.10702349 0.034525521 -0.027067961
0.10624153 0.03599767 -0.026767563
0.10678484 0.035145167 -0.026878392
0.10681944 0.035632465 -0.026676811
0.10616019 0.036920991 -0.026428651
0.10684828 0.036272112 -0.026356839
0.10687944 0.036780454 -0.026079137
0.10353072 0.040496729 -0.023416813
0.1041868 0.039993022 -0.023932442
0.10479492 0.039422005 -0.024454057
0.10538926 0.038796667 -0.024969108
0.10597304 0.038124535 -0.025463562
0.10647333 0.037491135 -0.025760558
0.10154194 0.022231137 -0.027015084
0.10230595 0.022080485 -0.027031846
0.10176051 0.023345508 -0.027057311
0.10220586 0.022927839 -0.027058315
0.10286759 0.022874985 -0.027097728
0.10241869 0.024277814 -0.027167339
0.10269353 0.023699425 -0.027157191
0.10340104 0.023698239 -0.027205829
0.10321945 0.024527557 -0.027226467
0.1039664 0.024513997 -0.027248997
0.10378633 0.025571255 -0.027270168
0.10455068 0.025359591 -0.027275158
0.10403197 0.026657797 -0.027267378
0.10444865 0.026233839 -0.027257998
0.10517234 0.026149299 -0.027261764
0.10465223 0.027637033 -0.02728698
0.1048757 0.027029473 -0.027260831
0.10576905 0.026950207 -0.027258314
0.1051886 0.02848025 -0.027324336
0.10540126 0.027901756 -0.02728498
0.10635429 0.027767709 -0.027293345
0.10570237 0.029312113 -0.027376261
