# .PCD v0.7 - Point Cloud Data file format
VERSION 0.7
FIELDS x y z rgb
SIZE 4 4 4 4
TYPE F F F U
COUNT 1 1 1 1
WIDTH 1060
HEIGHT 1
VIEWPOINT 0 0 0 1 0 0 0
POINTS 1060
DATA ascii
0.010319023 0.028196091 0 4278255360
0.012288528 0.028195398 0 4278255360
0.013294158 0.0282303 0 4278255360
0.014263458 0.028238375 0 4278255360
0.015240188 0.028248925 0 4278255360
0.020237941 0.028259022 0 4278255360
0.0092510795 0.028779626 0 4278255360
0.010230015 0.028727179 0 4278255360
0.011260357 0.028774329 0 4278255360
0.012241919 0.028710371 0 4278255360
0.013255623 0.028762335 0 4278255360
0.014232096 0.028727151 0 4278255360
0.0192616 0.028299404 0 4278255360
0.014185171 0.029218737 0 4278255360
0.015265927 0.029233886 0 4278255360
0.01922488 0.02927202 0 4278255360
0.020273274 0.029186634 0 4278255360
0.021292057 0.02920402 0 4278255360
0.011315643 0.029783668 0 4278255360
0.012199583 0.029749701 0 4278255360
0.013306618 0.029776206 0 4278255360
0.01973225 0.030169606 0 4278255360
0.020682393 0.029761648 0 4278255360
0.021243362 0.029746857 0 4278255360
0.011257279 0.030254485 0 4278255360
0.012241171 0.030260757 0 4278255360
0.013252388 0.030238841 0 4278255360
0.01073147 0.030802945 0 4278255360
0.012284569 0.030743834 0 4278255360
0.014244323 0.030811695 0 4278255360
0.020249613 0.030746488 0 4278255360
0.021254672 0.030738059 0 4278255360
0.0092524216 0.031712215 0.00018003555 4278255360
0.011250823 0.031705983 0.00012226599 4278255360
0.0082696145 0.031717051 0.00017858263 4294952960
0.0092524216 0.031712215 0.00018003555 4294952960
0.0097067365 0.031711578 0.00019741469 4294952960
0.010265067 0.031702362 0.00014288514 4294952960
-0.019798879 -0.031750001 0.00073136023 4278255360
-0.02223663 -0.031750005 0.0007700831 4278255360
-0.019238193 -0.031750001 0.00072531379 4278255360
-0.018281832 -0.031750001 0.00074436778 4278255360
-0.016242689 -0.031750001 0.00079089304 4278255360
0.0052360077 -0.031750001 0.00077239098 4278255360
-0.017763808 -0.031750005 0.00073742244 4278255360
-0.014778552 -0.031253301 0 4294952960
-0.013775237 -0.031750008 0.00074216427 4294952960
-0.012783084 -0.031240257 0 4294952960
-0.011818548 -0.031198088 0 4294952960
-0.011269101 -0.031750005 0.00077005284 4294952960
-0.010283867 -0.031249829 0 4294952960
-0.0093009882 -0.031264044 0 4294952960
-0.0082464516 -0.031750005 0.00073231035 4294952960
-0.0072578457 -0.031749997 0.00077304355 4294952960
-0.0062577552 -0.031750005 0.00071086147 4278255360
-0.0052295937 -0.031750005 0.00075650215 4278255360
-0.0042529437 -0.031750008 0.00077636493 4278255360
-0.0032162589 -0.031750001 0.00075449934 4278255360
-0.0022287383 -0.031750001 0.00078317692 4278255360
-0.0012656444 -0.031749997 0.00065168657 4294952960
-0.00024336344 -0.031750008 0.00072403782 4294952960
0.00068781286 -0.031750008 0.00076659641 4294952960
0.0017801847 -0.031750008 0.00075830222 4294952960
0.0027363701 -0.031750005 0.00070057437 4294952960
0.0037773722 -0.031749997 0.00076413486 4294952960
0.0046988577 -0.031750008 0.00078366313 4294952960
0.0062692659 -0.031750001 0.00071935053 4278255360
0.0072307 -0.031749997 0.00075190683 4278255360
0.0082370425 -0.031750008 0.00072966033 4278255360
0.009208804 -0.031749997 0.00069727813 4278255360
0.0087346118 -0.03075726 0 4294952960
0.0097339563 -0.030754214 0 4294952960
0.010702792 -0.030798113 0 4294952960
0.011247784 -0.030770982 0 4294952960
0.012307229 -0.030726762 0 4294952960
0.013257656 -0.03077792 0 4294952960
0.014207968 -0.030795962 0 4294952960
0.014733512 -0.030760076 0 4294952960
0.015759645 -0.030763078 0 4294952960
0.01675899 -0.030744307 0 4294952960
0.017708076 -0.030784912 0 4294952960
0.019801077 -0.030710351 0 4294952960
0.023232406 -0.030684374 0 4294952960
-0.022267362 -0.030224588 0 4294952960
0.011679793 -0.030299794 0 4294952960
0.018313512 -0.030234993 0 4294952960
0.018774249 -0.030226151 0 4294952960
0.019265478 -0.03023974 0 4294952960
0.020787859 -0.030250402 0 4294952960
0.019784138 -0.029799104 0 4294952960
0.022796946 -0.029684728 0 4294952960
-0.022243734 -0.029283328 0 4294952960
0.021246525 -0.029229682 0 4294952960
-0.022226593 -0.028715042 0 4294952960
-0.021740561 -0.028257668 0 4294952960
0.020740571 -0.028238794 0 4294952960
0.020749113 -0.027740294 0 4294952960
-0.021747936 -0.027240252 0 4294952960
0.020801092 -0.026771339 0 4294952960
-0.022250295 -0.026247744 0 4294952960
-0.021720542 -0.026267523 0 4294952960
0.020276196 -0.026236387 0 4294952960
-0.022283446 -0.025731601 0 4294952960
-0.021751516 -0.02425657 0 4294952960
0.02075704 -0.024715602 0 4294952960
-0.022237917 -0.023743985 0 4294952960
-0.021747021 -0.023688545 0 4294952960
0.020782061 -0.023311259 0 4294952960
-0.021709045 -0.022765802 0 4294952960
0.021247774 -0.022278242 0 4294952960
-0.0222151 -0.021281105 0 4294952960
-0.021666462 -0.021291692 0 4294952960
0.021172421 -0.021265544 0 4294952960
-0.021757668 -0.02022714 0 4294952960
0.020793488 -0.02027031 0 4294952960
-0.022269929 -0.019715225 0 4294952960
0.020749647 -0.019277118 0 4294952960
-0.022285415 -0.018775191 0 4294952960
-0.021824464 -0.018202212 0 4294952960
-0.022261092 -0.017732251 0 4294952960
0.020715291 -0.017720936 0 4294952960
-0.022226896 -0.016786581 0 4294952960
-0.021823032 -0.015736666 0 4294952960
0.020246662 -0.015743542 0 4294952960
-0.022308882 -0.0151783 0 4294952960
-0.022229098 -0.014261605 0 4294952960
-0.021714058 -0.013284446 0 4294952960
0.020275036 -0.013251957 0 4294952960
-0.021723203 -0.01274334 0 4294952960
-0.022257851 -0.011773348 0 4294952960
0.020769993 -0.011721668 0 4294952960
-0.021713771 -0.010724515 0 4294952960
0.020713177 -0.010788813 0 4294952960
-0.021784602 -0.010264269 0 4294952960
-0.021208823 -0.0097322892 0 4294952960
-0.021776108 -0.0092858775 0 4294952960
-0.021676727 -0.0087964581 0 4294952960
-0.021733243 -0.0082459273 0 4294952960
0.021227591 -0.0082380567 0 4294952960
0.021260539 -0.007820732 0 4294952960
-0.021744354 -0.0072308262 0 4294952960
0.021267869 -0.0072860196 0 4294952960
0.021268567 -0.0067606163 0 4294952960
-0.022239495 -0.006731343 0 4294952960
-0.021777211 -0.006186767 0 4294952960
-0.021798145 -0.0057651941 0 4294952960
-0.021733453 -0.0052453228 0 4294952960
0.02177136 -0.0052289255 0 4294952960
-0.021773286 -0.0047784541 0 4294952960
0.021759093 -0.0042550983 0 4294952960
-0.021732761 -0.0037912447 0 4294952960
-0.021251729 -0.0037697763 0 4294952960
0.021278089 -0.0037917236 0 4294952960
-0.021748925 -0.0027266683 0 4294952960
0.021255601 -0.0027754563 0 4294952960
-0.021304537 -0.0022663253 0 4294952960
-0.021210358 -0.0017312112 0 4294952960
0.021230046 -0.0017704916 0 4294952960
-0.02119956 -0.0007528803 0 4294952960
-0.02119956 -0.0007528803 0 4294952960
0.021246593 -0.00072932849 0 4294952960
-0.021303244 -0.00022515818 0 4294952960
0.020727806 -0.00022577585 0 4294952960
-0.021278875 0.00078772404 0 4294952960
0.020765197 0.00073115865 0 4294952960
0.020272039 0.0012584319 0 4294952960
-0.021753425 0.001737117 0 4294952960
-0.021220813 0.0017444125 0 4294952960
0.02122933 0.0017504677 0 4294952960
-0.021287434 0.002257983 0 4294952960
-0.021744821 0.0027733264 0 4294952960
-0.021229025 0.0027441292 0 4294952960
0.021248782 0.0027749024 0 4294952960
-0.021753645 0.0032488003 0 4294952960
0.020719407 0.0032704091 0 4294952960
0.020848719 0.0037690997 0 4294952960
-0.021223748 0.0042892592 0 4294952960
0.021267975 0.0042217346 0 4294952960
0.021236639 0.0047043585 0 4294952960
-0.021728227 0.0052755163 0 4294952960
-0.021244187 0.0052551283 0 4294952960
0.02071947 0.0052966024 0 4294952960
-0.021753917 0.0057390495 0 4294952960
-0.020734437 0.0057402072 0 4294952960
0.021283597 0.0057484452 0 4294952960
-0.021288997 0.0062666596 0 4294952960
-0.020756917 0.0062965238 0 4294952960
0.021236893 0.0061789029 0 4294952960
-0.021740524 0.0072482028 0 4294952960
-0.021218052 0.0072456547 0 4294952960
-0.020278126 0.0072804079 0 4294952960
0.020750375 0.0072161658 0 4294952960
-0.021174558 0.0077422117 0 4294952960
-0.020778831 0.0082193678 0 4294952960
0.020791855 0.0077271382 0 4294952960
-0.021257006 0.0087128002 0 4294952960
-0.020803832 0.0087528136 0 4294952960
0.020762147 0.0087488052 0 4294952960
0.020808412 0.0092013599 0 4294952960
-0.020796647 0.0098156985 0 4294952960
0.020779116 0.0097513478 0 4294952960
-0.021204498 0.010234136 0 4294952960
-0.020760288 0.010183387 0 4294952960
0.02071318 0.010244654 0 4294952960
-0.021265648 0.010810372 0 4294952960
0.020708831 0.010739926 0 4294952960
0.020312086 0.011245753 0 4294952960
-0.021268615 0.011714637 0 4294952960
-0.02077616 0.01227731 0 4294952960
0.020763468 0.012247649 0 4294952960
-0.020721134 0.013289602 0 4294952960
0.02076943 0.013221947 0 4294952960
-0.021268748 0.013729943 0 4294952960
-0.020750977 0.013762788 0 4294952960
0.020781599 0.013763702 0 4294952960
-0.021255828 0.014316385 0 4294952960
-0.020798577 0.014771062 0 4294952960
0.020755881 0.014719729 0 4294952960
-0.020202814 0.015307025 0 4294952960
0.020797642 0.015241973 0 4294952960
-0.020732379 0.01625816 0 4294952960
-0.020197483 0.01627475 0 4294952960
0.020714078 0.016244622 0 4294952960
-0.021203311 0.016787229 0 4294952960
-0.020734206 0.01724253 0 4294952960
0.021239256 0.017255465 0 4294952960
-0.020728357 0.018263476 0 4294952960
-0.020212004 0.018285384 0 4294952960
0.020735985 0.018226782 0 4294952960
0.02129386 0.018199885 0 4294952960
-0.020765401 0.018765694 0 4294952960
0.021246994 0.01919673 0 4294952960
-0.020761203 0.019727832 0 4294952960
0.021240883 0.019786516 0 4294952960
-0.020790139 0.020237124 0 4294952960
-0.020284705 0.020261364 0 4294952960
0.02121084 0.020196343 0 4294952960
0.0212183 0.020817172 0 4294952960
-0.020710453 0.021260293 0 4294952960
-0.020758331 0.02180811 0 4294952960
0.020766249 0.021747313 0 4294952960
0.021226173 0.021736518 0 4294952960
-0.021255344 0.022236699 0 4294952960
0.021278163 0.022284308 0 4294952960
-0.021731971 0.022780195 0 4294952960
-0.02073689 0.022694213 0 4294952960
-0.021746075 0.023277987 0 4294952960
0.020719828 0.022825306 0 4294952960
-0.021246223 0.024257161 0 4294952960
0.021249402 0.024212362 0 4294952960
0.021256579 0.024762997 0 4294952960
-0.021794192 0.02523239 0 4294952960
0.021741744 0.025730649 0 4294952960
0.021227218 0.026251823 0 4294952960
0.021319956 0.027209386 0 4294952960
-0.02171408 0.027206676 0 4294952960
-0.021724714 0.027760653 0 4294952960
0.021219179 0.027730348 0 4294952960
-0.0217536 0.02875508 0 4294952960
0.021200337 0.028738126 0 4294952960
0.021761047 0.028713264 0 4294952960
-0.021248357 -0.031750005 0.001210182 4278255360
-0.020220468 -0.031750005 0.001264277 4294952960
-0.01874906 -0.031750008 0.0012983482 4278255360
-0.018268701 -0.031750008 0.0012157375 4278255360
-0.017338069 -0.031750005 0.0012213932 4278255360
-0.016231673 -0.031750001 0.0012750091 4278255360
-0.015313774 -0.031750005 0.0012182492 4278255360
-0.013717627 -0.031750005 0.0012438006 4278255360
-0.012787228 -0.031750001 0.0012857016 4278255360
-0.011769909 -0.031750005 0.0012689161 4278255360
-0.011242373 -0.031750008 0.0012634904 4278255360
-0.010286292 -0.031750008 0.0012402806 4278255360
-0.0097666215 -0.031750008 0.0012527573 4278255360
-0.0088232635 -0.031749997 0.0012301975 4278255360
-0.0077622947 -0.031749997 0.0013133786 4278255360
-0.0067581688 -0.031750001 0.0012166705 4278255360
-0.0062770396 -0.031749997 0.0012890137 4278255360
-0.0052854554 -0.031750001 0.0012430868 4278255360
-0.0042612543 -0.031750008 0.0012485675 4278255360
-0.0032196019 -0.031750008 0.0012256022 4278255360
-0.0022698632 -0.031750001 0.0012492521 4278255360
-0.0012513991 -0.031750005 0.0012568429 4278255360
-0.00022933354 -0.031750008 0.0012020287 4278255360
0.00076594378 -0.031749997 0.0012812697 4278255360
0.0017975444 -0.031749997 0.0012168869 4278255360
0.0027079596 -0.031750005 0.001244651 4278255360
0.0037755789 -0.031750008 0.0012385937 4278255360
0.0047174012 -0.031750001 0.0012364725 4278255360
0.023231404 -0.031750001 0.00079940673 4278255360
0.023711329 -0.031676382 0.0012657261 4278255360
-0.022294093 -0.031749997 0.0012423696 4278255360
0.010240408 -0.031750001 0.001252798 4278255360
0.011283837 -0.031749997 0.0012729226 4278255360
0.011750731 -0.031750008 0.001251462 4278255360
0.012764126 -0.031749997 0.0012897517 4278255360
0.013711574 -0.031750001 0.0012563466 4278255360
0.014854986 -0.031750001 0.0012028053 4278255360
0.015784595 -0.031750005 0.0012144436 4278255360
0.01678996 -0.031750005 0.0012289917 4294952960
0.017759027 -0.031750005 0.0012340251 4294952960
0.018257456 -0.031750005 0.0012236346 4294952960
0.019740276 -0.031750001 0.0012638862 4294952960
-0.02231241 -0.030766267 0 4294952960
0.019191043 -0.031749997 0.0012296288 4294952960
0.020749113 -0.031750005 0.0012849624 4294952960
0.022745833 -0.031750005 0.0012711992 4294952960
-0.023750005 -0.030260962 0.0012258131 4294952960
0.021234885 -0.031750005 0.0012560727 4294952960
-0.023750005 -0.029347925 0.0012371204 4294952960
0.023750005 -0.029236875 0.0013130318 4294952960
0.021205315 -0.028717639 0 4294952960
-0.022227457 -0.02827649 0 4294952960
0.023750005 -0.028257938 0.0012781272 4294952960
-0.023750005 -0.02771694 0.0012821401 4294952960
0.021185184 -0.027730722 0 4294952960
-0.023750005 -0.026745806 0.0012461863 4294952960
0.021254683 -0.026762128 0 4294952960
0.021267157 -0.025667638 0 4294952960
-0.022271993 -0.024748355 0 4294952960
0.021259759 -0.024753148 0 4294952960
-0.022250514 -0.024276437 0 4294952960
-0.023750005 -0.022688027 0.0012741733 4294952960
-0.022219904 -0.02226414 0 4294952960
-0.023750005 -0.021280121 0.0012445432 4294952960
0.021172421 -0.021265544 0 4294952960
-0.023750005 -0.020776367 0.0012562252 4294952960
-0.023750005 -0.019228989 0.001217358 4294952960
0.020725483 -0.018704155 0 4294952960
-0.023750005 -0.018244635 0.0012083623 4294952960
-0.023750005 -0.016792987 0.0012353562 4294952960
0.020717043 -0.016749639 0 4294952960
-0.022247545 -0.016226517 0 4294952960
-0.022308882 -0.0151783 0 4294952960
0.020755664 -0.015262999 0 4294952960
-0.023750005 -0.014795677 0.0013047413 4294952960
0.020819934 -0.014273218 0 4294952960
-0.022240687 -0.013723339 0 4294952960
-0.022240613 -0.013234182 0 4294952960
-0.023750005 -0.0127281 0.001233217 4294952960
0.020782223 -0.012777684 0 4294952960
-0.023750005 -0.011208885 0.0012585764 4294952960
-0.022229897 -0.010774164 0 4294952960
0.021279136 -0.010707353 0 4294901760
-0.023750005 -0.0093182242 0.0012068411 4294952960
0.021260107 -0.009856917 0 4294952960
0.021294465 -0.0092592295 0 4294952960
-0.02225483 -0.0086681005 0 4294952960
-0.023750005 -0.0072380914 0.0012451825 4294952960
0.021798624 -0.0067184162 0 4294952960
-0.023750005 -0.005790655 0.0017465637 4294952960
0.021756506 -0.0057327254 0 4294952960
-0.022204522 -0.0052556535 0 4294952960
0.021757111 -0.0047211782 0 4294952960
-0.022275798 -0.0041918969 0 4294952960
-0.023750005 -0.0037628484 0.0012846243 4294952960
0.021756981 -0.0037485783 0 4294952960
0.021658858 -0.0033195324 0 4294952960
-0.022257533 -0.003215749 0 4294952960
0.021774773 -0.0027047179 0 4294952960
-0.022291979 -0.002287983 0 4294952960
-0.022280028 -0.0017346237 0 4294952960
0.021781487 -0.0017816661 0 4294952960
-0.02174517 -0.0012713235 0 4294952960
0.021292539 -0.0011967517 0 4294952960
-0.022217138 -0.00071974739 0 4294952960
0.021224502 -0.00027507858 0 4294952960
-0.022242693 0.00029272799 0 4294952960
-0.021815337 0.00078258687 0 4294952960
0.021251054 0.00071600621 0 4294952960
-0.02231022 0.0012149683 0 4294952960
0.021198176 0.0012362825 0 4294952960
-0.022297215 0.0017404113 0 4294952960
0.02122933 0.0017504677 0 4294952960
-0.023750005 0.0027807944 0.0012247702 4294952960
0.021235025 0.0037089312 0 4294952960
-0.022216909 0.003698362 0 4294952960
-0.02227721 0.0042486698 0 4294952960
-0.022234548 0.00581659 0 4294952960
-0.022304162 0.0067264596 0 4294952960
0.021197299 0.0072206128 0 4294901760
0.02120495 0.0077309483 0 4294952960
-0.022241825 0.0081893867 0 4294952960
-0.021745363 0.0087284409 0 4294952960
-0.0217549 0.0092714569 0 4294952960
0.021239579 0.0092493305 0 4294952960
-0.022274997 0.009790306 0 4294952960
-0.021737061 0.01078507 0 4294952960
-0.021723509 0.011792243 0 4294952960
0.020722335 0.011805346 0 4294952960
-0.021266742 0.012282084 0 4294952960
-0.021696089 0.012748584 0 4294952960
0.021251479 0.013200735 0 4294952960
-0.021714451 0.013777073 0 4294952960
0.021264357 0.014274826 0 4294952960
0.021319263 0.014803323 0 4294952960
0.021687914 0.014753424 0 4294952960
-0.02171967 0.015244833 0 4294952960
-0.02117026 0.015272304 0 4294952960
0.021738084 0.01576416 0 4294952960
-0.021724461 0.015798524 0 4294952960
0.021249155 0.016214516 0 4294952960
-0.021738851 0.016772317 0 4294901760
-0.021215023 0.017235208 0 4294952960
0.021790013 0.017269857 0 4294952960
-0.02175051 0.01769544 0 4294952960
-0.021312166 0.017781734 0 4294952960
-0.021778686 0.018729348 0 4294952960
-0.021290954 0.020195421 0 4294952960
-0.021236395 0.02126579 0 4294952960
0.021756204 0.021290187 0 4294952960
-0.0218 0.022257563 0 4294952960
-0.022242254 0.023260407 0 4294952960
0.02170435 0.023213251 0 4294952960
0.022257112 0.023233885 0 4294901760
-0.021746656 0.024282569 0 4294952960
0.021742903 0.024220804 0 4294952960
0.022215273 0.025286555 0 4294952960
-0.022203065 0.025758235 0 4294952960
0.021741744 0.025730649 0 4294952960
-0.021672273 0.026221249 0 4294952960
0.021755025 0.026730072 0 4294952960
0.022306828 0.026766036 0 4294952960
-0.02171408 0.027206676 0 4294952960
0.022228872 0.027254758 0 4294952960
-0.021739567 0.028280368 0 4294952960
0.021722015 0.028230449 0 4294952960
0.022222362 0.028731184 0 4294952960
-0.021756183 0.029227568 0 4294952960
-0.021267185 -0.031750005 0.0017780485 4294952960
-0.019217974 -0.031750001 0.0016711816 4278255360
0.013267119 -0.031749997 0.0016946698 4278255360
0.023247326 -0.031750001 0.0017536775 4278255360
0.023689141 -0.031696435 0.0017552024 4294952960
-0.022215515 -0.031750005 0.0017888796 4278255360
-0.017248075 -0.031750005 0.0016738545 4278255360
-0.016742351 -0.031750008 0.0017821111 4278255360
-0.015240896 -0.031750005 0.0017202264 4278255360
-0.0147784 -0.031749997 0.0016868643 4278255360
-0.014274478 -0.031750008 0.0017364762 4278255360
-0.013249584 -0.031750001 0.0017935145 4278255360
-0.012275668 -0.031750008 0.0017462996 4278255360
-0.011219664 -0.031750001 0.001770016 4278255360
-0.010191966 -0.031750008 0.0017221331 4278255360
-0.0092985658 -0.031749997 0.0017216731 4278255360
-0.0082654543 -0.031750001 0.0017140821 4278255360
-0.0072513777 -0.031749997 0.0017998774 4278255360
0.0057260739 -0.031750008 0.0018043844 4278255360
0.0067018713 -0.031749997 0.0016920588 4278255360
0.0077575501 -0.031750005 0.0017694203 4278255360
0.0087180743 -0.031750005 0.0017815355 4278255360
0.010231856 -0.031749997 0.0017508363 4278255360
0.011276509 -0.031750001 0.0017673799 4278255360
0.011736439 -0.031750005 0.0017896502 4278255360
0.012809848 -0.031750001 0.0017909436 4278255360
0.014260481 -0.031750001 0.0017517093 4278255360
0.015190468 -0.031750008 0.0017332191 4278255360
0.016265346 -0.031750008 0.0017169364 4278255360
0.017254815 -0.031750005 0.0017580241 4278255360
0.017712172 -0.031750001 0.0017458453 4278255360
0.01927151 -0.031750008 0.0017455213 4278255360
0.019740233 -0.031750001 0.0016404393 4278255360
0.020734025 -0.031749997 0.0017349353 4278255360
-0.02278694 -0.031750001 0.0017640514 4294952960
0.021699982 -0.031750005 0.0017603919 4294952960
0.022233233 -0.031749997 0.0017506225 4278255360
0.022233233 -0.031749997 0.0017506225 4294952960
0.021771574 -0.030240064 0 4294901760
-0.023750005 -0.0297183 0.0017302012 4294952960
0.021746378 -0.029258985 0 4294901760
-0.023750005 -0.028740846 0.001690821 4294952960
0.023750005 -0.028726064 0.0017674215 4294952960
-0.023750005 -0.028235346 0.0017346476 4294952960
0.021185184 -0.027730722 0 4294901760
-0.023750005 -0.027257789 0.0022176551 4294952960
-0.023750005 -0.026244121 0.0017941041 4294952960
-0.023750005 -0.025748238 0.0018246183 4294952960
0.021267157 -0.025667638 0 4294901760
-0.023750005 -0.024269646 0.0017372988 4294952960
-0.023750005 -0.023800986 0.0016984508 4294952960
0.021235036 -0.023261428 0 4294901760
-0.023750005 -0.021697788 0.0017745655 4294952960
0.021221634 -0.021707943 0 4294901760
-0.023750005 -0.020746473 0.0017025787 4294952960
-0.023750005 -0.019806338 0.0018170289 4294952960
0.021233238 -0.019743823 0 4294901760
-0.023750005 -0.018693805 0.0017892015 4294952960
-0.023750005 -0.017752308 0.0017602018 4294952960
0.020724311 -0.017299185 0 4294901760
-0.023750005 -0.016319498 0.001729209 4294952960
0.020798478 -0.016223455 0 4294901760
-0.023750005 -0.01572373 0.001708327 4294952960
-0.023750005 -0.014231432 0.0017340034 4294952960
0.020778766 -0.013720189 0 4294901760
-0.023750005 -0.013275716 0.0017912264 4294952960
0.020782223 -0.012777684 0 4294901760
-0.023750005 -0.011721622 0.0017366273 4294952960
0.020769993 -0.011721668 0 4294901760
-0.023750005 -0.011258529 0.0017265294 4294952960
0.021239376 -0.011276342 0 4294901760
-0.023750005 -0.010268592 0.0017628286 4294952960
0.021260107 -0.009856917 0 4294901760
-0.023750005 -0.0087591344 0.0017867211 4294952960
-0.023750005 -0.0083023161 0.0017539298 4294952960
0.021734685 -0.0081769619 0 4294901760
0.021788569 -0.0072455173 0 4294901760
-0.023750005 -0.0067459671 0.0017546153 4294952960
0.023750005 -0.006236536 0.0017664736 4294901760
0.021756506 -0.0057327254 0 4294901760
-0.023750005 -0.0047489512 0.0017148342 4294952960
0.021757111 -0.0047211782 0 4294901760
0.021658858 -0.0033195324 0 4294901760
-0.023750005 -0.0022654186 0.0017377329 4294952960
0.021781487 -0.0017816661 0 4294901760
0.021777807 -0.00071651116 0 4294901760
-0.023750005 -0.00020174638 0.0017917972 4294952960
-0.023750005 0.00034571558 0.001756056 4294952960
0.021726245 0.00020167152 0 4294901760
-0.023750005 0.0017958398 0.0017935295 4294952960
0.021711148 0.0027391878 0 4294901760
-0.023750005 0.0032080961 0.0017754976 4294952960
0.021795098 0.0037483466 0 4294901760
-0.023750005 0.0042182519 0.0017544741 4294952960
0.021776401 0.0048362804 0 4294901760
-0.023750005 0.0052458704 0.0016949549 4294952960
0.02176244 0.0062930561 0 4294901760
-0.023750005 0.0072607375 0.0017731655 4294952960
0.021751523 0.0072205551 0 4294901760
0.021741098 0.0082694776 0 4294901760
-0.023750005 0.0092935665 0.0017709105 4294952960
0.021696614 0.0096754106 0 4294901760
-0.023750005 0.010745493 0.0016954899 4294952960
0.021210613 0.010746211 0 4294901760
-0.023750005 0.011234383 0.0017225707 4294901760
0.021698073 0.011762131 0 4294901760
-0.022268843 0.01219008 0 4294901760
0.021750158 0.013299445 0 4294901760
-0.022180695 0.013701964 0 4294901760
-0.022244047 0.014273875 0 4294901760
-0.023750005 0.014744321 0.0017146225 4294952960
-0.023750005 0.015777377 0.0017611729 4294901760
0.021754973 0.016246682 0 4294901760
-0.023750005 0.017208144 0.0017868056 4294901760
0.023750005 0.017789256 0.0017823944 4294901760
-0.023750005 0.018259034 0.0017347477 4294901760
0.022226794 0.018742524 0 4294901760
-0.021766128 0.019233042 0 4294901760
-0.021754935 0.019746326 0 4294901760
0.022234542 0.019712588 0 4294901760
-0.023750005 0.020250449 0.0017695962 4294901760
-0.021781273 0.021258555 0 4294901760
0.023750005 0.021290215 0.0017367591 4294901760
-0.023750005 0.022207448 0.0018137112 4294901760
0.023750005 0.02225616 0.0017340878 4294901760
-0.023750005 0.024717359 0.0017402332 4294952960
0.023750005 0.024738945 0.0016819538 4294901760
0.023750005 0.025750387 0.001781031 4294952960
-0.022231406 0.026777064 0 4294901760
-0.023750005 0.028300915 0.0017794797 4294901760
0.023750005 0.028243477 0.0017135886 4294952960
0.023750005 0.029189294 0.0017480446 4294952960
-0.022246411 -0.031750005 0.0022583134 4278255360
-0.021798978 -0.031750001 0.0022824046 4294952960
-0.020750267 -0.031750008 0.0022892836 4294952960
-0.019733567 -0.031749997 0.002310588 4294952960
-0.0057160719 -0.031750005 0.0017225986 4278255360
-0.0047550253 -0.031749997 0.0022869695 4278255360
-0.0037537958 -0.031750001 0.0022427137 4278255360
-0.0027554792 -0.031749997 0.0022261888 4278255360
-0.0017335918 -0.031750001 0.0022300803 4278255360
-0.00077953993 -0.031750005 0.0022029553 4278255360
0.0017385609 -0.031750008 0.0022601546 4278255360
0.0031874054 -0.031750001 0.0022110296 4278255360
0.0042608129 -0.031750005 0.0022419875 4278255360
0.0052153235 -0.031750008 0.0022278216 4278255360
0.0062456988 -0.031749997 0.0022647257 4278255360
0.0087171644 -0.031750005 0.0022600109 4278255360
0.0097773112 -0.031750001 0.0022528064 4278255360
0.010784525 -0.031750008 0.0022403961 4278255360
0.011782399 -0.031750005 0.0022357537 4278255360
0.012802074 -0.031749997 0.0022548952 4278255360
0.013761499 -0.031750005 0.0022376226 4294952960
0.014740675 -0.031749997 0.0022600866 4294952960
0.015711259 -0.031750001 0.0022520926 4278255360
0.016778395 -0.031749997 0.0022171256 4278255360
0.017750356 -0.031750005 0.0022663658 4278255360
0.023698561 -0.031678498 0.0022556882 4294952960
-0.022769723 -0.031749997 0.0022338908 4278255360
-0.0062771104 -0.031750008 0.0022788588 4278255360
0.00017944958 -0.031750005 0.002295234 4278255360
0.001242741 -0.031749997 0.0022511303 4278255360
0.0072489395 -0.031750001 0.0022343176 4278255360
0.0082629547 -0.031750008 0.0022952219 4278255360
0.018734112 -0.031750008 0.0022544223 4278255360
0.019727807 -0.031750001 0.0022392748 4278255360
0.021276802 -0.031749997 0.0022702818 4278255360
-0.023750005 -0.029756779 0.002217039 4278255360
-0.023750005 -0.02878473 0.0022488462 4278255360
0.023750005 -0.028727517 0.0023011023 4294901760
0.023750005 -0.028242879 0.0022260218 4294952960
-0.023750005 -0.026775612 0.0027318299 4294952960
0.021219019 -0.026263686 0 4294901760
-0.023750005 -0.025209934 0.0022142942 4294952960
0.021251462 -0.025250139 0 4294901760
0.021241743 -0.024260137 0 4294901760
-0.023750005 -0.022733441 0.00225963 4294952960
0.021254519 -0.022812095 0 4294901760
-0.023750005 -0.021802731 0.002268329 4294952960
0.020765284 -0.021719551 0 4294901760
0.020735728 -0.020760799 0 4294901760
-0.023750005 -0.019210013 0.0022447829 4294952960
0.020749647 -0.019277118 0 4294901760
0.020729175 -0.018237025 0 4294901760
-0.023750005 -0.017274382 0.0022648734 4294952960
0.020717043 -0.016749639 0 4294901760
-0.023750005 -0.015792359 0.0026960797 4294952960
-0.023750005 -0.014724524 0.0022561119 4294952960
0.02073843 -0.014685805 0 4294901760
-0.023750005 -0.013235535 0.0022449917 4294952960
-0.023750005 -0.012698842 0.0022381698 4294952960
-0.023750005 -0.011239549 0.0022581422 4294952960
-0.023750005 -0.010752597 0.0022613052 4294952960
0.021279136 -0.010707353 0 4294901760
-0.023750005 -0.0097430162 0.0017509399 4294952960
-0.023750005 -0.0092500327 0.0021926793 4294952960
-0.023750005 -0.0087341703 0.0022208558 4294952960
0.021252804 -0.0088030221 0 4294901760
-0.023750005 -0.007750357 0.0022655562 4294952960
0.023750005 -0.0067760833 0.0022586333 4294901760
0.023750005 -0.0062865345 0.002259654 4294901760
-0.023750005 -0.0051943548 0.0022501345 4294952960
0.023750005 -0.0052183075 0.0022409232 4294901760
0.023750005 -0.0047643087 0.0022493016 4294901760
0.023750005 -0.0042041899 0.0022504439 4294901760
-0.023750005 -0.0032284369 0.0022804691 4294952960
0.023750005 -0.0027512745 0.0017951776 4294901760
-0.023750005 -0.0017587149 0.0022385577 4294952960
0.023750005 -0.0017407653 0.0022244216 4294901760
-0.023750005 -0.00076932361 0.0022015148 4294952960
0.023750005 -0.00070750713 0.0022038803 4294901760
-0.023750005 0.00024321052 0.0022816085 4294952960
0.023750005 0.00078682316 0.0022153906 4294901760
-0.023750005 0.0012570097 0.0021889177 4294952960
0.021721721 0.0017189195 0 4294901760
-0.023750005 0.0027259435 0.0022817918 4294952960
0.023750005 0.0027425885 0.0022985418 4294901760
-0.023750005 0.0037697949 0.0027437459 4294952960
-0.023750005 0.0047510769 0.0021991672 4294952960
0.023750005 0.0053155995 0.0022018817 4294901760
-0.023750005 0.0062868535 0.0021972039 4294952960
0.023750005 0.0062545985 0.0027249928 4294901760
-0.023750005 0.0087219812 0.0023051428 4294952960
0.023750005 0.0086940927 0.002311205 4294901760
-0.023750005 0.0097178742 0.0023359025 4294952960
0.023750005 0.010751536 0.0022218733 4294901760
0.023750005 0.01177359 0.0022424557 4294901760
-0.023750005 0.012288027 0.0021929392 4294952960
0.023750005 0.012756076 0.0023250782 4294901760
-0.023750005 0.013252975 0.0022296603 4294952960
0.023750005 0.013257253 0.0022068943 4294901760
-0.023750005 0.014245217 0.0022852076 4294952960
0.023750005 0.014247802 0.0021522231 4294901760
0.023750005 0.014741561 0.0022417014 4294901760
-0.023750005 0.015785968 0.0022387491 4294952960
0.023750005 0.015752085 0.002224612 4294901760
-0.023750005 0.016716756 0.0022906966 4294952960
0.023750005 0.01674322 0.0022817363 4294901760
-0.023750005 0.017763874 0.0022428031 4294952960
-0.023750002 0.01880577 0.0021843072 4294952960
-0.023750003 0.019216273 0.0022340217 4294952960
0.023750005 0.019251915 0.002270241 4294952960
0.023750005 0.0202455 0.0022316673 4294952960
0.023750005 0.021242782 0.0022555825 4294952960
-0.023750005 0.021766685 0.0022525555 4294952960
-0.023750005 0.023693722 0.0023060783 4294952960
0.023750005 0.023747297 0.0022177682 4294952960
0.023750005 0.025325539 0.0022431707 4294952960
-0.023750003 0.026164144 0.002241323 4294952960
0.023750003 0.026189066 0.0023165089 4294952960
-0.023750003 0.027235767 0.0022764807 4294901760
0.023750005 0.027220167 0.0022590104 4294952960
0.023750005 0.028250098 0.0022081458 4294952960
-0.01877865 -0.031750001 0.0027467697 4278255360
-0.017784301 -0.031750008 0.0027567197 4278255360
-0.017218458 -0.031750008 0.0027989559 4278255360
-0.016760303 -0.031749997 0.0027045538 4278255360
-0.0057299584 -0.031750008 0.0027407317 4278255360
-0.0052178064 -0.031749997 0.0026921383 4278255360
-0.0042628627 -0.031749997 0.0027641519 4278255360
-0.0032692989 -0.031750005 0.0027730223 4278255360
-0.0022451754 -0.031750005 0.0027098001 4278255360
-0.0012938034 -0.031750005 0.0027794554 4278255360
-0.00026826008 -0.031750005 0.0027383589 4278255360
0.0012161084 -0.031749997 0.0027292469 4278255360
0.0016782725 -0.031750008 0.0027752616 4278255360
0.0026779266 -0.031750008 0.0027591283 4278255360
0.0037564067 -0.031750008 0.0027761937 4294952960
0.0047609904 -0.031750008 0.0027166943 4294952960
0.0057672863 -0.031750001 0.0027617496 4278255360
0.0067726034 -0.031750008 0.0027311991 4278255360
0.0077520953 -0.031750008 0.0027659982 4278255360
0.022712722 -0.031749997 0.0027011475 4278255360
0.023264175 -0.031750005 0.0027191918 4294952960
-0.022723489 -0.031750005 0.0027350688 4278255360
-0.016196501 -0.031749997 0.0027332678 4278255360
-0.015228779 -0.031750008 0.0027659771 4278255360
-0.014753264 -0.031750008 0.0027529006 4278255360
-0.013756522 -0.031749997 0.0027329214 4278255360
-0.012759909 -0.031750001 0.0027464016 4278255360
-0.011747072 -0.031750008 0.0027651866 4278255360
-0.010756304 -0.031750001 0.0027086146 4278255360
-0.0097510889 -0.031750008 0.0027540983 4278255360
-0.0087846052 -0.031750008 0.0027463918 4278255360
-0.0077718855 -0.031750005 0.0027161508 4278255360
-0.0067701032 -0.031750008 0.0027537958 4278255360
0.020733081 -0.031750005 0.0027968981 4278255360
0.021755178 -0.031749997 0.0027619866 4278255360
-0.023750005 -0.030723944 0.002726753 4278255360
-0.023750005 -0.029715095 0.0026936936 4278255360
-0.023750003 -0.028285908 0.0027770514 4278255360
0.023750005 -0.028258985 0.0027826205 4294901760
0.023750005 -0.028258985 0.0027826205 4294952960
-0.023750005 -0.027736533 0.0027186337 4278255360
0.023750005 -0.027284551 0.0027523772 4294901760
0.02070225 -0.026239423 0 4294901760
-0.023750005 -0.025754197 0.0027619868 4294952960
0.020767951 -0.025289545 0 4294901760
0.02075704 -0.024715602 0 4294901760
-0.023750005 -0.023747848 0.0027444419 4278255360
0.020737831 -0.023736481 0 4294901760
-0.023750005 -0.022243228 0.0027317267 4294952960
0.020699946 -0.02225633 0 4294901760
0.020269832 -0.020771962 0 4294901760
-0.023750005 -0.020225005 0.002778891 4294952960
0.020793488 -0.02027031 0 4294901760
-0.023750005 -0.017735407 0.0027330497 4294952960
0.020715291 -0.017720936 0 4294901760
-0.023750005 -0.016661787 0.002733907 4294952960
0.020767435 -0.015778698 0 4294901760
-0.023750005 -0.014237245 0.0027759341 4294952960
0.020756213 -0.013270891 0 4294901760
-0.023750005 -0.012239309 0.0027633565 4294952960
0.020770347 -0.012282319 0 4294901760
0.021239376 -0.011276342 0 4294901760
0.023750005 -0.010740296 0.0028105283 4294901760
-0.023750005 -0.010201018 0.0026953798 4294952960
0.023750005 -0.0097783403 0.0027777478 4294901760
-0.023750005 -0.0092955632 0.0027647028 4294952960
-0.023750005 -0.0082145985 0.0027684951 4294952960
0.023750005 -0.0072348481 0.0026984566 4294901760
-0.023750005 -0.0063011195 0.0026923371 4294952960
0.023750005 -0.0062552206 0.0027542852 4294901760
0.023750005 -0.0052807592 0.0027277747 4294901760
-0.023750003 -0.0042497208 0.0027732267 4294952960
0.023750005 -0.0037934033 0.0027071019 4294901760
0.023750005 -0.0032333082 0.0027640983 4294901760
-0.023750005 -0.0026791673 0.0027795951 4294952960
0.023750005 -0.0022470106 0.0027569449 4294901760
0.023750005 -0.0017167681 0.002768897 4294901760
0.023750005 -0.00075877213 0.0027475019 4294901760
-0.023750005 -0.00020591449 0.0027466186 4294952960
0.023750005 -0.00024741315 0.0027596983 4294901760
-0.023750005 0.0017421958 0.0027883148 4294952960
0.023750005 0.0022187596 0.0028275447 4294901760
-0.023750005 0.0032613711 0.0027990162 4294952960
0.023750005 0.0042710584 0.0027743836 4294901760
-0.023750005 0.0057757376 0.0027341649 4294952960
0.023750005 0.0057025878 0.0032663948 4294901760
-0.023750005 0.0078142295 0.0027066458 4294952960
0.023750005 0.0077882251 0.0027356716 4294901760
-0.023750005 0.0092594391 0.0027127641 4294952960
0.023750005 0.0097777415 0.0026858367 4294901760
-0.023750005 0.011251714 0.0027785799 4294952960
0.023750005 0.011216952 0.0027568934 4294901760
0.023750005 0.012760019 0.0027720523 4294901760
-0.023750005 0.013262577 0.0027508764 4294952960
0.023750005 0.013740608 0.0027248699 4294901760
-0.023750005 0.014790166 0.0027220121 4294952960
0.023750005 0.016223663 0.002755136 4294901760
-0.023750005 0.017277844 0.0027801485 4294952960
0.023750005 0.018260516 0.0027237076 4294952960
-0.023750005 0.019250413 0.0027512421 4294952960
0.023750005 0.019301664 0.0027528324 4294952960
-0.023750005 0.019793296 0.0027871383 4294952960
0.023750005 0.020287912 0.0032871945 4294952960
0.023750005 0.020727428 0.0028165197 4294952960
-0.023750005 0.021236772 0.0027599155 4294952960
-0.023750005 0.02272784 0.0027530284 4294952960
0.023750005 0.022718882 0.0027574785 4294952960
0.023750005 0.024342734 0.0028068635 4294952960
-0.023750005 0.025178129 0.0028099848 4294952960
0.023750005 0.02523317 0.0027012562 4294952960
-0.023750005 0.026739797 0.0027403226 4294952960
0.023750005 0.027776463 0.0027964821 4294952960
-0.023750005 0.028752517 0.0027481441 4294901760
0.023750005 0.028678464 0.0027309158 4294952960
-0.021763904 -0.031750005 0.0032296134 4278255360
-0.020752074 -0.031750008 0.0032405925 4294952960
-0.020294739 -0.031749997 0.0032077983 4294952960
-0.018748986 -0.031750005 0.003291341 4294952960
-0.018259538 -0.031750005 0.0032272993 4278255360
0.0087235142 -0.031750008 0.0032093059 4278255360
0.0092961108 -0.031750005 0.0032005506 4294952960
0.010265296 -0.031750005 0.0032463928 4294952960
0.011262555 -0.031750001 0.0032403562 4294952960
0.0122984 -0.031750005 0.0032618516 4294952960
0.013226414 -0.031750001 0.0032037843 4294952960
0.0142586 -0.031750001 0.0032401413 4294952960
0.01526471 -0.031750001 0.0033044547 4294952960
0.016238766 -0.031750005 0.0032350062 4294952960
0.017236458 -0.031749997 0.0032466005 4294952960
0.01826157 -0.031750005 0.0032309247 4294952960
0.019278351 -0.031749997 0.0032466368 4278255360
0.020331809 -0.031750008 0.0032715385 4278255360
0.023261875 -0.031750005 0.0032481186 4294952960
-0.022786284 -0.031750001 0.0032076794 4278255360
-0.016748028 -0.031750005 0.0032500471 4278255360
-0.015790109 -0.031750005 0.0032779551 4278255360
-0.015272925 -0.031750008 0.0032650691 4278255360
-0.013234523 -0.031750005 0.0032742165 4278255360
-0.012210665 -0.031750001 0.0032216334 4278255360
-0.011206856 -0.031750005 0.0032240634 4278255360
-0.010226357 -0.031750008 0.0032231971 4278255360
-0.0092293015 -0.031750005 0.0032397965 4278255360
-0.0082539599 -0.031750001 0.0032570218 4278255360
-0.0073172282 -0.031750001 0.0032914393 4278255360
-0.0062225522 -0.031750008 0.0032634984 4278255360
-0.0052765254 -0.031750001 0.0032610812 4278255360
-0.0032751947 -0.031749997 0.0033117582 4278255360
0.02080049 -0.031749997 0.0032889489 4278255360
0.021257209 -0.031750001 0.0032470818 4278255360
0.022225242 -0.031750005 0.0032121369 4278255360
0.021809988 -0.031750005 0.0032228993 4278255360
-0.023750005 -0.030246511 0.003271284 4278255360
-0.023750005 -0.029245589 0.0033000284 4278255360
0.023750005 -0.029260261 0.0032610127 4294901760
0.023750005 -0.029260261 0.0032610127 4294952960
0.023750005 -0.028241519 0.0032831277 4294901760
0.023750005 -0.027732218 0.0033026009 4294901760
-0.023750003 -0.027278911 0.0032653075 4278255360
0.023750005 -0.027249621 0.003267498 4294901760
-0.023750003 -0.02620041 0.0032139062 4278255360
0.020260906 -0.025696468 0 4294901760
-0.023750005 -0.024763282 0.0032257626 4278255360
0.020225165 -0.02481547 0 4294901760
0.020237477 -0.023740523 0 4294901760
-0.023750005 -0.023266027 0.0032812541 4278255360
0.020218138 -0.023261834 0 4294901760
0.020249236 -0.022267895 0 4294901760
0.020261455 -0.02181253 0 4294901760
-0.023750005 -0.021264905 0.0032896525 4294952960
0.02023641 -0.020279691 0 4294901760
0.020280086 -0.019264765 0 4294901760
-0.023750005 -0.018770471 0.0032328917 4294952960
0.020729175 -0.018237025 0 4294901760
-0.023750005 -0.017235588 0.0032875936 4294952960
0.023750005 -0.016264983 0.0032352456 4294901760
-0.023750005 -0.015273484 0.0032480354 4294952960
0.023750005 -0.014254529 0.0032509805 4294901760
-0.023750005 -0.012772776 0.0032313738 4294952960
0.023750005 -0.012740511 0.0032568194 4294901760
-0.023750005 -0.01073837 0.0032117956 4294952960
0.023750005 -0.010758104 0.0032492147 4294901760
-0.023750005 -0.0097556738 0.0032870688 4294952960
0.023750005 -0.0097475229 0.0032537638 4294901760
0.023750005 -0.0092715016 0.0032596842 4294901760
0.023750005 -0.0087738065 0.0032643697 4294901760
0.023750005 -0.0082110092 0.00323145 4294901760
0.023750005 -0.0077657588 0.0032109611 4294901760
-0.023750005 -0.0067276042 0.0032446967 4294952960
0.023750005 -0.0066655758 0.0033030845 4294901760
-0.023750005 -0.0048054098 0.0027627044 4294952960
0.023750005 -0.0047360985 0.0032577147 4294901760
-0.023750005 -0.0032014919 0.0032176969 4294952960
0.023750005 -0.0026713193 0.0032419218 4294901760
-0.023750005 -0.0012692617 0.003229978 4294952960
0.023750005 -0.0012758776 0.003731397 4294901760
0.023750005 -0.00071248587 0.0032320404 4294901760
0.023750005 0.00020239915 0.0032782285 4294901760
-0.023750005 0.00072822877 0.0032218453 4294952960
0.023750005 0.0012636944 0.003261578 4294901760
-0.023750005 0.0022328289 0.0032823125 4294952960
0.023750005 0.0032333559 0.0032590907 4294901760
-0.023750005 0.0043033669 0.0032779537 4294952960
0.023750005 0.0047717481 0.0032519184 4294901760
-0.023750005 0.0052824887 0.0032217344 4294952960
-0.023750005 0.0062893778 0.0037176406 4294952960
-0.023750005 0.0067604058 0.0032616958 4294952960
0.023750005 0.0067450744 0.0032301384 4294901760
-0.023750005 0.0082315542 0.0033124285 4294952960
0.023750005 0.0092344871 0.0032209351 4294901760
-0.023750005 0.010189536 0.0032682174 4294952960
0.023750005 0.010222476 0.0031974018 4294901760
0.023750005 0.011761513 0.0032408577 4294901760
-0.023750005 0.012789219 0.0032395963 4294952960
0.023750005 0.012772528 0.0032054752 4294901760
-0.023750005 0.013790106 0.0032202397 4294952960
0.023750005 0.015271311 0.00323602 4294901760
-0.023750005 0.016258718 0.0032494592 4294952960
0.023750005 0.017206425 0.0032414328 4294952960
-0.023750005 0.018700505 0.0032781363 4294952960
0.023750005 0.018738903 0.0032360563 4294952960
-0.023750005 0.019723916 0.0033103004 4294952960
0.023750005 0.019754982 0.0032735018 4294952960
-0.023750005 0.020193089 0.003307356 4294952960
0.023750005 0.021257265 0.0037087055 4294952960
0.023750005 0.02219202 0.0032783058 4294952960
-0.023750005 0.0222209 0.0032707865 4294952960
0.023750005 0.023194565 0.0031652933 4294952960
-0.023750005 0.024257371 0.0031937207 4294952960
0.023750005 0.024684299 0.0032543454 4294952960
-0.023750005 0.025776088 0.0032374058 4294952960
0.023750005 0.026753632 0.0032667089 4294952960
-0.023750005 0.027736505 0.0032791686 4294952960
0.023750005 0.027707865 0.0032429842 4294952960
-0.023750005 0.028843412 0.0033096347 4294901760
-0.023750005 0.028843412 0.0033096347 4294901760
0.023750005 0.028801478 0.003262406 4278255360
-0.022253614 -0.031749997 0.0037297707 4278255360
-0.021257758 -0.031750005 0.0037743798 4294952960
-0.020288259 -0.031750001 0.0038309346 4294952960
-0.01925664 -0.031750005 0.0037220954 4278255360
-0.01868063 -0.031749997 0.0036687751 4278255360
-0.0022798013 -0.031750008 0.003729549 4278255360
0.0007430251 -0.031750008 0.0037215787 4278255360
0.0012654091 -0.031750005 0.0037496292 4278255360
0.0022478944 -0.031750001 0.0037828425 4278255360
0.0032772268 -0.031750005 0.0037521138 4294952960
0.0042229788 -0.031749997 0.0038002287 4294952960
0.0052437931 -0.031750005 0.0037600922 4294952960
0.0062652496 -0.031749997 0.0037594165 4278255360
0.0072517847 -0.031750005 0.0037082559 4278255360
0.0082502486 -0.031750008 0.0037350056 4278255360
0.0092060333 -0.031750001 0.0037274722 4278255360
0.010259437 -0.031750001 0.0037123438 4294952960
0.010703072 -0.031750005 0.0037898233 4294952960
0.011718036 -0.031750005 0.0037052229 4294952960
0.012762456 -0.031750008 0.0037550319 4294952960
0.014193518 -0.031750001 0.0037846544 4294952960
0.014705135 -0.031750005 0.0037547026 4294952960
0.015735844 -0.031749997 0.0037472576 4294952960
0.016774386 -0.031749997 0.0037213813 4294952960
0.01775107 -0.031750001 0.0037579387 4294952960
0.018746315 -0.031750008 0.00374294 4294952960
0.019737618 -0.031750008 0.0037580258 4294952960
0.020204728 -0.031750008 0.0037683349 4278255360
0.02281118 -0.031750005 0.0037359986 4278255360
0.023724547 -0.031654999 0.0037451822 4294952960
-0.02278696 -0.031749997 0.0036938533 4278255360
-0.018228466 -0.031750008 0.0037551704 4278255360
-0.017261881 -0.031750008 0.003739022 4278255360
-0.016223079 -0.031750005 0.0037349151 4278255360
-0.015203599 -0.031750005 0.0037421482 4278255360
-0.014240358 -0.031750005 0.0037742599 4278255360
-0.013287332 -0.031749997 0.0037506802 4278255360
-0.012276722 -0.031750005 0.0042402274 4278255360
-0.0042373845 -0.031750001 0.0037575853 4278255360
-0.0012255489 -0.031749997 0.0037408378 4278255360
-0.00023320662 -0.031750005 0.0037345409 4278255360
-0.023750005 -0.030730026 0.0037755684 4278255360
-0.023750005 -0.029830804 0.0042311372 4278255360
0.023750005 -0.029765155 0.0037211908 4294901760
0.023750002 -0.029262584 0.0037523333 4294901760
0.020204728 -0.031750008 0.0037683349 4294901760
-0.023750003 -0.027769905 0.0038165059 4278255360
0.023750005 -0.027725324 0.0037467575 4294901760
0.023750005 -0.02679229 0.0037649749 4294901760
0.020276196 -0.026236387 0 4294901760
0.023750005 -0.026243551 0.0037662066 4294901760
-0.023750003 -0.025236065 0.0036837745 4278255360
0.01977505 -0.025247665 0 4294901760
-0.023750005 -0.024236763 0.0037244041 4278255360
0.019768286 -0.023205714 0 4294901760
-0.023750003 -0.021760993 0.0038110551 4278255360
0.019753728 -0.020754907 0 4294901760
-0.023750005 -0.019740731 0.0037847867 4278255360
0.023750005 -0.019766865 0.0037694576 4294901760
0.023750005 -0.019208657 0.0037831506 4294901760
-0.023750005 -0.018254887 0.0043280106 4294952960
0.023750005 -0.018214334 0.0037343421 4294901760
0.023750003 -0.017296068 0.0036662817 4294901760
-0.023750005 -0.016257659 0.0037077356 4294952960
0.023750005 -0.01519557 0.0037231962 4294901760
-0.023750003 -0.013779862 0.0037058871 4278255360
0.023750005 -0.013766446 0.0037718911 4294901760
-0.023750005 -0.011779202 0.0037381134 4294952960
0.023750005 -0.011263691 0.0037550512 4294901760
-0.023750005 -0.010243779 0.0037193249 4294952960
-0.023750005 -0.0092366254 0.0037345954 4294952960
0.023750005 -0.0092590768 0.0037096629 4294901760
-0.023750005 -0.0087746391 0.0037199219 4294952960
-0.023750005 -0.0077880961 0.0037251965 4294952960
-0.023750005 -0.0057615545 0.0037306312 4294952960
0.023750005 -0.0058039376 0.0037608459 4294901760
-0.023750005 -0.0042527118 0.0037726739 4294952960
0.023750005 -0.0032454038 0.0037513589 4294901760
-0.023750003 -0.0022845962 0.0037110485 4294952960
0.023750005 -0.0017609657 0.0037959954 4294901760
0.023750005 -0.00016600943 0.0037875087 4294901760
-0.023750005 0.00026678148 0.0037230724 4294952960
0.023750005 0.00074304751 0.0037466025 4294901760
-0.023750005 0.0012982475 0.0037723463 4294952960
0.023750005 0.0027478442 0.0037647721 4294901760
-0.023750005 0.0037662275 0.0037744285 4294952960
-0.023750005 0.0057566171 0.0037120648 4294952960
-0.023750005 0.0062893778 0.0037176406 4294952960
0.023750005 0.0062742732 0.003738607 4294901760
0.023750005 0.0081809005 0.0037286824 4294901760
0.023750005 0.009257609 0.0037231464 4294901760
-0.023750005 0.0098071387 0.0037591681 4294952960
0.023750005 0.010768919 0.0037760618 4294901760
-0.023750005 0.011746775 0.0037118942 4294952960
0.023750005 0.012306822 0.0037459622 4294901760
-0.023750005 0.01325584 0.0037633777 4294952960
0.023750005 0.014253164 0.0037620431 4294901760
-0.023750005 0.015268006 0.0037547648 4294952960
0.023750005 0.016277278 0.0037083409 4294952960
-0.023750005 0.01780913 0.0037111656 4294952960
0.023750005 0.017738409 0.0037955218 4294952960
-0.023750005 0.01921593 0.0037541878 4294952960
0.023750005 0.018707285 0.0037284205 4294952960
0.023750005 0.020260584 0.0037569299 4294952960
-0.023750005 0.021282192 0.0037371651 4294952960
0.023750005 0.022264972 0.00377288 4294952960
-0.023750005 0.023236088 0.003715955 4294952960
0.023750005 0.02375786 0.0037113978 4294952960
-0.023750005 0.024784381 0.0042486712 4294952960
0.023750005 0.025748629 0.0037410881 4294952960
0.023750005 0.026683345 0.0037766958 4294952960
-0.023750005 0.027230287 0.0037609662 4294952960
0.023750005 0.028238 0.0037482756 4294952960
-0.023750005 0.029254021 0.003729908 4294952960
-0.0017433143 -0.031750008 0.0042527271 4278255360
0.0012664333 -0.031750001 0.0042753136 4278255360
0.0027569963 -0.031750001 0.0042364015 4278255360
0.0037564365 -0.031750008 0.004224197 4294952960
0.0046879342 -0.031750001 0.0042502875 4294952960
0.0057708542 -0.031750008 0.0042292206 4278255360
0.0072456342 -0.031750008 0.0042688632 4278255360
0.0077225165 -0.031750008 0.0042071124 4278255360
0.0087393234 -0.031750005 0.0042208475 4278255360
0.0097362921 -0.031750005 0.0042368472 4278255360
0.010699584 -0.031750005 0.0042845584 4294952960
0.023228614 -0.031750008 0.0042579719 4294952960
-0.02271031 -0.031750005 0.004276365 4278255360
-0.014267494 -0.031749997 0.0041916906 4278255360
-0.011274781 -0.031750005 0.0042238869 4278255360
-0.010226649 -0.031750001 0.0042592627 4278255360
-0.0092595359 -0.031750001 0.0042690481 4278255360
-0.0082634874 -0.031750005 0.0041994723 4278255360
-0.0072540464 -0.031749997 0.0042121252 4278255360
-0.0062057241 -0.031750005 0.0042288173 4278255360
-0.0057668327 -0.031749997 0.0043015317 4278255360
-0.0047780764 -0.031750001 0.0042676125 4278255360
-0.0042481343 -0.031750008 0.0042634336 4278255360
-0.002697058 -0.031749997 0.0043150387 4278255360
-0.00073739875 -0.031750001 0.0043163328 4278255360
0.00024957058 -0.031750001 0.0042881547 4278255360
0.021301514 -0.031750001 0.0042640599 4278255360
0.02228619 -0.031750001 0.00423689 4278255360
