# .PCD v0.7 - Point Cloud Data file format
VERSION 0.7
FIELDS x y z rgb
SIZE 4 4 4 4
TYPE F F F U
COUNT 1 1 1 1
WIDTH 1234
HEIGHT 1
VIEWPOINT 0 0 0 1 0 0 0
POINTS 1234
DATA ascii
0.014773633 0.026760485 0 4278255360
0.01524692 0.026701406 0 4278255360
0.015734576 0.026708804 0 4278255360
0.016245199 0.026753038 0 4278255360
0.016730048 0.026733704 0 4278255360
0.017244574 0.026724763 0 4278255360
0.017815033 0.026772346 0 4278255360
0.018281845 0.026820118 0 4278255360
0.018790094 0.026763041 0 4278255360
0.019290108 0.026803652 0 4278255360
0.019689335 0.026727872 0 4278255360
0.020296296 0.026714716 0 4278255360
0.020718999 0.02675434 0 4278255360
0.021242553 0.026713235 0 4278255360
0.021755025 0.026730072 0 4278255360
0.022306828 0.026766036 0 4278255360
0.022690916 0.026866302 0 4278255360
0.023230264 0.02673752 0 4278255360
-0.023720337 0.027261332 0.00016711152 4278255360
-0.023325879 0.027258893 0 4278255360
-0.022772245 0.027322607 0 4278255360
-0.022282211 0.027231004 0 4278255360
-0.02171408 0.027206676 0 4278255360
-0.021194104 0.027252067 0 4278255360
-0.02072634 0.0272281 0 4278255360
-0.020215416 0.027225506 0 4278255360
-0.019736212 0.027192609 0 4278255360
-0.019254813 0.027226964 0 4278255360
-0.018773112 0.027287895 0 4278255360
-0.018286532 0.02716969 0 4278255360
-0.017801525 0.027279384 0 4278255360
-0.017259873 0.027189836 0 4278255360
-0.01674811 0.02724405 0 4278255360
-0.016244588 0.027243752 0 4278255360
-0.015781309 0.02726559 0 4278255360
-0.015285713 0.0271919 0 4278255360
-0.014746698 0.027272029 0 4278255360
-0.014258337 0.027336922 0 4278255360
-0.013729727 0.027224146 0 4278255360
-0.013289213 0.027257716 0 4278255360
-0.012793226 0.027245486 0 4278255360
-0.012260229 0.027243454 0 4278255360
-0.011734935 0.027198222 0 4278255360
-0.011192954 0.027200032 0 4278255360
-0.010761542 0.027261877 0 4278255360
-0.010288991 0.027280433 0 4278255360
-0.0097682485 0.027311608 0 4278255360
-0.009320654 0.027203046 0 4278255360
-0.0087216189 0.027204189 0 4278255360
-0.0082184356 0.027248919 0 4278255360
-0.0077238246 0.027252974 0 4278255360
-0.0072396337 0.02725005 0 4278255360
-0.0067153592 0.027273282 0 4278255360
-0.0062344354 0.027236635 0 4278255360
-0.0057520997 0.027271856 0 4278255360
-0.0052032508 0.027254103 0 4278255360
-0.0047539091 0.027230315 0 4278255360
-0.0042743008 0.027214434 0 4278255360
-0.0037313709 0.027241299 0 4278255360
-0.0032743048 0.0272367 0 4278255360
-0.0027074777 0.027288426 0 4278255360
-0.0022397435 0.027293384 0 4278255360
-0.0017198473 0.027223062 0 4278255360
-0.0012499612 0.027307564 0 4278255360
-0.00073593005 0.027313994 0 4278255360
-0.00028128747 0.027232403 0 4278255360
0.00026530784 0.027245244 0 4278255360
0.00078230642 0.027248513 0 4278255360
0.0012372936 0.027255297 0 4278255360
0.0017281185 0.027227113 0 4278255360
0.0022570153 0.027217096 0 4278255360
0.0028135027 0.027289834 0 4278255360
0.0032658041 0.027217947 0 4278255360
0.0037276039 0.027242847 0 4278255360
0.0042813825 0.027247006 0 4278255360
0.004751184 0.027327305 0 4278255360
0.0052513322 0.027265968 0 4278255360
0.005712362 0.027284831 0 4278255360
0.0067394269 0.027278082 0 4278255360
0.0067394269 0.027278082 0 4278255360
0.007229825 0.027306246 0 4278255360
0.007735875 0.02725108 0 4278255360
0.0082530659 0.027183028 0 4278255360
0.0087575223 0.027260555 0 4278255360
0.0092764935 0.02725422 0 4278255360
0.0097944988 0.027245259 0 4278255360
0.010242409 0.027220415 0 4278255360
0.010758048 0.02720006 0 4278255360
0.011317341 0.027231699 0 4278255360
0.011748886 0.027284104 0 4278255360
0.01229261 0.027207434 0 4278255360
0.012746372 0.027269999 0 4278255360
0.013258083 0.027249303 0 4278255360
0.013784229 0.027261822 0 4278255360
0.014264246 0.027212715 0 4278255360
0.01476001 0.027260903 0 4278255360
0.015257442 0.027246917 0 4278255360
0.015770487 0.027265772 0 4278255360
0.016153798 0.027249265 0 4278255360
0.01676688 0.027209304 0 4278255360
0.017170915 0.027287258 0 4278255360
0.017668203 0.027224427 0 4278255360
0.01822935 0.027268324 0 4278255360
0.018743807 0.027255995 0 4278255360
0.019208454 0.027243642 0 4278255360
0.019691415 0.027190892 0 4278255360
0.020233786 0.027273497 0 4278255360
0.020721234 0.027280685 0 4278255360
0.021319956 0.027209386 0 4278255360
0.021760028 0.027238093 0 4278255360
0.022228872 0.027254758 0 4278255360
0.022757465 0.027273173 0 4278255360
0.023251232 0.027264996 0 4278255360
-0.023695162 0.027768992 0.00016531207 4278255360
-0.023261381 0.027724253 0 4278255360
-0.02271821 0.027747856 0 4278255360
-0.022282196 0.027773226 0 4278255360
-0.021724714 0.027760653 0 4278255360
-0.021354722 0.027733183 0 4278255360
-0.020732094 0.027713489 0 4278255360
-0.020273916 0.02778874 0 4278255360
-0.019752715 0.027751716 0 4278255360
-0.019232914 0.027738037 0 4278255360
-0.018754806 0.027712172 0 4278255360
-0.01827164 0.027776306 0 4278255360
-0.017710578 0.027700415 0 4278255360
-0.017257113 0.027745077 0 4278255360
-0.016762929 0.027828313 0 4278255360
-0.016244877 0.027726255 0 4278255360
-0.015776867 0.027684348 0 4278255360
-0.015273352 0.027719239 0 4278255360
-0.014753558 0.027726751 0 4278255360
-0.014212426 0.027731311 0 4278255360
-0.013767489 0.02773359 0 4278255360
-0.013274401 0.027766043 0 4278255360
-0.012784393 0.02771946 0 4278255360
-0.012277993 0.027760688 0 4278255360
-0.011724373 0.027756711 0 4278255360
-0.011195082 0.02776389 0 4278255360
-0.010773118 0.027679179 0 4278255360
-0.010224157 0.02774884 0 4278255360
-0.0097812712 0.027750086 0 4278255360
-0.0092470534 0.027737729 0 4278255360
-0.0087942341 0.027735565 0 4278255360
-0.008258055 0.027795101 0 4278255360
-0.0077930531 0.027796626 0 4278255360
-0.0072514107 0.027693056 0 4278255360
-0.0067030713 0.027758654 0 4278255360
-0.0062858541 0.027694972 0 4278255360
-0.005815079 0.027756849 0 4278255360
-0.0052891374 0.027770389 0 4278255360
-0.0047357455 0.027783392 0 4278255360
-0.0042783283 0.02771204 0 4278255360
-0.0037535063 0.027725086 0 4278255360
-0.0032498026 0.027675757 0 4278255360
-0.002754464 0.027739063 0 4278255360
-0.0021991089 0.027735449 0 4278255360
-0.0017293511 0.027755877 0 4278255360
-0.0012659128 0.027699154 0 4278255360
-0.00073269493 0.027669778 0 4278255360
-0.00024574215 0.027758935 0 4278255360
0.00027608048 0.027779056 0 4278255360
0.0007517045 0.027734963 0 4278255360
0.0012400621 0.02770146 0 4278255360
0.0017612752 0.027714608 0 4278255360
0.0021834641 0.027677223 0 4278255360
0.0027520137 0.027812965 0 4278255360
0.0032545263 0.02776554 0 4278255360
0.0037485512 0.027713837 0 4278255360
0.0042778742 0.02777967 0 4278255360
0.0047175228 0.027746504 0 4278255360
0.0052270121 0.027755424 0 4278255360
0.0057441937 0.027753677 0 4278255360
0.0062354454 0.027720172 0 4278255360
0.0067144767 0.027768956 0 4278255360
0.0072765397 0.02775256 0 4278255360
0.0077425181 0.027781963 0 4278255360
0.0082204286 0.027705666 0 4278255360
0.0087480107 0.027736407 0 4278255360
0.0092882998 0.027781622 0 4278255360
0.0097731138 0.027734607 0 4278255360
0.010230246 0.027763963 0 4278255360
0.010744723 0.027777879 0 4278255360
0.011274619 0.027712828 0 4278255360
0.011754572 0.027738404 0 4278255360
0.012205349 0.027752593 0 4278255360
0.012717042 0.027773669 0 4278255360
0.013248906 0.027768539 0 4278255360
0.013804041 0.027723007 0 4278255360
0.014238864 0.027773017 0 4278255360
0.014767601 0.027780388 0 4278255360
0.01526926 0.027747802 0 4278255360
0.015769031 0.027720397 0 4278255360
0.016263025 0.027696043 0 4278255360
0.016755629 0.027768418 0 4278255360
0.017280534 0.027691955 0 4278255360
0.017829884 0.027742371 0 4278255360
0.018321455 0.027756635 0 4278255360
0.018680625 0.027801443 0 4278255360
0.019250656 0.027751053 0 4278255360
0.019772369 0.027746176 0 4278255360
0.020237647 0.027716907 0 4278255360
0.020799736 0.027756492 0 4278255360
0.021219179 0.027730348 0 4278255360
0.021817949 0.0277723 0 4278255360
0.022243826 0.027711155 0 4278255360
0.022750102 0.027733948 0 4278255360
0.023251187 0.027748417 0 4278255360
0.023676094 0.027729061 0.00015388156 4278255360
0.023676094 0.027729061 0.00015388156 4294952960
-0.023712905 0.028250795 0.00017454669 4278255360
-0.023234339 0.02826748 0 4278255360
-0.022817349 0.028276665 0 4278255360
-0.022231787 0.028320467 0 4278255360
-0.021739567 0.028280368 0 4278255360
-0.021238841 0.028298689 0 4278255360
-0.020655219 0.028315727 0 4278255360
-0.020252075 0.02826442 0 4278255360
-0.019770278 0.028222764 0 4278255360
-0.01927037 0.02830735 0 4278255360
-0.018760186 0.028213466 0 4278255360
-0.018229561 0.028227558 0 4278255360
-0.017728491 0.028256953 0 4278255360
-0.017223559 0.02828305 0 4278255360
-0.016790204 0.028244717 0 4278255360
-0.016313696 0.02829613 0 4278255360
-0.015737494 0.028297672 0 4278255360
-0.015185175 0.028288107 0 4278255360
-0.014750615 0.028254678 0 4278255360
-0.014255527 0.028224777 0 4278255360
-0.013763118 0.028260782 0 4278255360
-0.013260914 0.028196525 0 4278255360
-0.012756091 0.028279478 0 4278255360
-0.012229471 0.028214313 0 4278255360
-0.011716941 0.028271625 0 4278255360
-0.011270626 0.028265607 0 4278255360
-0.010749477 0.028305596 0 4278255360
-0.010233149 0.028277148 0 4278255360
-0.0097501902 0.028284764 0 4278255360
-0.0092223426 0.028251613 0 4278255360
-0.0087602735 0.028274847 0 4278255360
-0.0082477732 0.028231375 0 4278255360
-0.0077316924 0.028236253 0 4278255360
-0.0072478494 0.028246181 0 4278255360
-0.0067410222 0.028286377 0 4278255360
-0.0062659546 0.028211253 0 4278255360
-0.0057292357 0.028248316 0 4278255360
-0.005223291 0.028269291 0 4278255360
-0.0048573138 0.028209288 0 4278255360
-0.0043004323 0.028188169 0 4278255360
-0.0037617057 0.028263552 0 4278255360
-0.0032707881 0.028215995 0 4278255360
-0.0027552159 0.028236948 0 4278255360
-0.0022944831 0.028220514 0 4278255360
-0.0017252453 0.0282427 0 4278255360
-0.0012447942 0.028291026 0 4278255360
-0.00075981067 0.028282966 0 4278255360
-0.00023610669 0.028303908 0 4278255360
0.00022305036 0.028185274 0 4278255360
0.00076804846 0.028196689 0 4278255360
0.0012254744 0.028305886 0 4278255360
0.001787309 0.028288597 0 4278255360
0.0022534952 0.028302724 0 4278255360
0.0027188782 0.028245337 0 4278255360
0.0032545447 0.028237201 0 4278255360
0.0038233574 0.028244853 0 4278255360
0.0042298031 0.028247654 0 4278255360
0.0047151302 0.028294411 0 4278255360
0.005264427 0.028218538 0 4278255360
0.0057411888 0.028255207 0 4278255360
0.0062552704 0.028195288 0 4278255360
0.0067598606 0.028274309 0 4278255360
0.0072084134 0.028179117 0 4278255360
0.0077926419 0.028229419 0 4278255360
0.0083233779 0.028253743 0 4278255360
0.0086868033 0.028219337 0 4278255360
0.0092585245 0.028297398 0 4278255360
0.0096809128 0.028275408 0 4278255360
0.010319023 0.028196091 0 4278255360
0.010753397 0.028231986 0 4278255360
0.011266423 0.028236059 0 4278255360
0.011769413 0.028309977 0 4278255360
0.012288528 0.028195398 0 4278255360
0.012756348 0.028249234 0 4278255360
0.013294158 0.0282303 0 4278255360
0.013751421 0.028265119 0 4278255360
0.014263458 0.028238375 0 4278255360
0.014722036 0.028230386 0 4278255360
0.015240188 0.028248925 0 4278255360
0.015737796 0.028234746 0 4278255360
0.016272353 0.028253034 0 4278255360
0.016753759 0.028216828 0 4278255360
0.017217359 0.028235152 0 4278255360
0.017801877 0.0282412 0 4278255360
0.018219128 0.028242383 0 4278255360
0.018802533 0.028290041 0 4278255360
0.0192616 0.028299404 0 4278255360
0.019751877 0.02823968 0 4278255360
0.020237941 0.028259022 0 4278255360
0.020787256 0.028249236 0 4278255360
0.021255909 0.028287629 0 4278255360
0.021722015 0.028230449 0 4278255360
0.022287475 0.028256048 0 4278255360
0.02277251 0.028240776 0 4278255360
0.023272563 0.028199667 0 4278255360
0.023703184 0.028249701 0.00014334131 4278255360
0.023703184 0.028249701 0.00014334131 4294952960
-0.023702685 0.028708458 0.00018535038 4278255360
-0.023296336 0.028773038 0 4278255360
-0.022748083 0.028773926 0 4278255360
-0.022248801 0.028716147 0 4278255360
-0.0217536 0.02875508 0 4278255360
-0.021273276 0.028721547 0 4278255360
-0.020735364 0.02880772 0 4278255360
-0.020260375 0.02871125 0 4278255360
-0.019833736 0.028805213 0 4278255360
-0.019277066 0.028719749 0 4278255360
-0.018744688 0.028694555 0 4278255360
-0.018251542 0.028771995 0 4278255360
-0.017797807 0.028725656 0 4278255360
-0.017221816 0.028768888 0 4278255360
-0.016738165 0.028742142 0 4278255360
-0.016230075 0.028811151 0 4278255360
-0.015765065 0.028750584 0 4278255360
-0.015190581 0.02870944 0 4278255360
-0.014747916 0.028773988 0 4278255360
-0.014258965 0.028752061 0 4278255360
-0.013687051 0.028769795 0 4278255360
-0.013287079 0.028748939 0 4278255360
-0.012768188 0.028756784 0 4278255360
-0.012267732 0.028729888 0 4278255360
-0.011721876 0.028726628 0 4278255360
-0.011238079 0.028780671 0 4278255360
-0.010763119 0.028755449 0 4278255360
-0.01023396 0.028804664 0 4278255360
-0.0098171905 0.028699176 0 4278255360
-0.0092381174 0.028706184 0 4278255360
-0.0087619731 0.028692357 0 4278255360
-0.0081971148 0.028745083 0 4278255360
-0.0078012291 0.028760415 0 4278255360
-0.007325097 0.028726362 0 4278255360
-0.0067228521 0.028702341 0 4278255360
-0.006254869 0.028796302 0 4278255360
-0.0057350346 0.028738253 0 4278255360
-0.0052473675 0.028743839 0 4278255360
-0.004755808 0.028746856 0 4278255360
-0.004227093 0.028745022 0 4278255360
-0.00375865 0.028730493 0 4278255360
-0.0032413623 0.028687174 0 4278255360
-0.0027584943 0.028753974 0 4278255360
-0.0022199817 0.028784713 0 4278255360
-0.0017749359 0.028732456 0 4278255360
-0.0012366724 0.028764 0 4278255360
-0.00076950522 0.028700776 0 4278255360
-0.00024938202 0.028737605 0 4278255360
0.00030045371 0.028773202 0 4278255360
0.00080297358 0.028749928 0 4278255360
0.0012502059 0.028775927 0 4278255360
0.0017277972 0.028720288 0 4278255360
0.0022809694 0.028689319 0 4278255360
0.0027416411 0.028731145 0 4278255360
0.0032848886 0.02875662 0 4278255360
0.0037815806 0.028782938 0 4278255360
0.0042210999 0.028782636 0 4278255360
0.0047968924 0.028796993 0 4278255360
0.0051655411 0.028723991 0 4278255360
0.0057202443 0.028763376 0 4278255360
0.0061908378 0.028724125 0 4278255360
0.0067329342 0.028743496 0 4278255360
0.007271783 0.028770629 0 4278255360
0.0077588893 0.028717076 0 4278255360
0.0082579441 0.02872698 0 4278255360
0.0087189088 0.028773952 0 4278255360
0.0092510795 0.028779626 0 4278255360
0.0097648026 0.028784746 0 4278255360
0.010230015 0.028727179 0 4278255360
0.010713774 0.028787285 0 4278255360
0.011260357 0.028774329 0 4278255360
0.011744975 0.028739484 0 4278255360
0.012241919 0.028710371 0 4278255360
0.012693834 0.028761879 0 4278255360
0.013255623 0.028762335 0 4278255360
0.013710709 0.028770968 0 4278255360
0.014232096 0.028727151 0 4278255360
0.014655489 0.02868099 0 4278255360
0.015297843 0.028711881 0 4278255360
0.015719155 0.028746765 0 4278255360
0.016245715 0.028735721 0 4278255360
0.016765436 0.028759275 0 4278255360
0.01728379 0.028763698 0 4278255360
0.017751653 0.028737094 0 4278255360
0.018206215 0.028761964 0 4278255360
0.018794093 0.028730357 0 4278255360
0.019269334 0.028801894 0 4278255360
0.019752236 0.028754519 0 4278255360
0.020263409 0.028741743 0 4278255360
0.02072202 0.028797871 0 4278255360
0.021200337 0.028738126 0 4278255360
0.021761047 0.028713264 0 4278255360
0.022222362 0.028731184 0 4278255360
0.022710385 0.028734334 0 4278255360
0.023246629 0.028744284 0 4278255360
0.023703011 0.028740581 0.00012261762 4278255360
0.023703011 0.028740581 0.00012261762 4294952960
-0.023710538 0.029234068 0.00014691206 4278255360
-0.023183241 0.029275751 0 4278255360
-0.022737242 0.029224256 0 4278255360
-0.022229727 0.029232491 0 4278255360
-0.021756183 0.029227568 0 4278255360
-0.021270314 0.029223256 0 4278255360
-0.020733116 0.029246083 0 4278255360
-0.020202376 0.029206196 0 4278255360
-0.019726273 0.02930565 0 4278255360
-0.019214844 0.029289434 0 4278255360
-0.018771596 0.029278221 0 4278255360
-0.018213784 0.02921728 0 4278255360
-0.017778361 0.029221656 0 4278255360
-0.017241031 0.02928487 0 4278255360
-0.016685549 0.029262466 0 4278255360
-0.016208775 0.029193075 0 4278255360
-0.01575518 0.029282456 0 4278255360
-0.015217609 0.029236788 0 4278255360
-0.014725165 0.029203912 0 4278255360
-0.014233454 0.029284105 0 4278255360
-0.013814012 0.029261135 0 4278255360
-0.01324606 0.029299295 0 4278255360
-0.012748915 0.029229419 0 4278255360
-0.012172278 0.029266782 0 4278255360
-0.011795919 0.029294522 0 4278255360
-0.011254597 0.029228074 0 4278255360
-0.010694918 0.0292415 0 4278255360
-0.01028813 0.02925883 0 4278255360
-0.0097696986 0.029262532 0 4278255360
-0.0092601571 0.029263383 0 4278255360
-0.0087629864 0.029280605 0 4278255360
-0.0082415733 0.029235812 0 4278255360
-0.007733359 0.029268291 0 4278255360
-0.0072187893 0.029253254 0 4278255360
-0.0067026569 0.029267265 0 4278255360
-0.0062453505 0.029241595 0 4278255360
-0.0057948101 0.029250741 0 4278255360
-0.0052292161 0.029304562 0 4278255360
-0.0047813412 0.029269764 0 4278255360
-0.0042529772 0.029286401 0 4278255360
-0.0037785578 0.029318567 0 4278255360
-0.0032750908 0.029277248 0 4278255360
-0.0027204845 0.029257931 0 4278255360
-0.0022991428 0.029215159 0 4278255360
-0.001785779 0.029236946 0 4278255360
-0.0012691702 0.029284475 0 4278255360
-0.00070095679 0.029248189 0 4278255360
-0.0002153766 0.029289035 0 4278255360
0.00022511002 0.02927688 0 4278255360
0.00073229952 0.029248519 0 4278255360
0.0013036488 0.029227363 0 4278255360
0.00168042 0.029321846 0 4278255360
0.0022917367 0.029260585 0 4278255360
0.0027690057 0.029205097 0 4278255360
0.0032477418 0.029257694 0 4278255360
0.003748232 0.029279448 0 4278255360
0.0042764293 0.029273193 0 4278255360
0.0047227005 0.029258374 0 4278255360
0.0052662506 0.029276887 0 4278255360
0.0057629622 0.029232783 0 4278255360
0.0062622242 0.029206362 0 4278255360
0.006763062 0.029232018 0 4278255360
0.0072012292 0.029256416 0 4278255360
0.0077037597 0.029264092 0 4278255360
0.008261025 0.029260287 0 4278255360
0.0086711617 0.029206505 0 4278255360
0.0092723491 0.029204827 0 4278255360
0.0097689498 0.029266713 0 4278255360
0.010244225 0.029263277 0 4278255360
0.010754335 0.029251413 0 4278255360
0.011246704 0.029198244 0 4278255360
0.011705001 0.029149532 0 4278255360
0.012260242 0.029234516 0 4278255360
0.012685346 0.029234843 0 4278255360
0.013253003 0.029256104 0 4278255360
0.01376407 0.029255714 0 4278255360
0.014185171 0.029218737 0 4278255360
0.01465319 0.029318901 0 4278255360
0.015265927 0.029233886 0 4278255360
0.015707882 0.029286159 0 4278255360
0.016279085 0.029262239 0 4278255360
0.016738405 0.029285666 0 4278255360
0.017198756 0.02927037 0 4278255360
0.017761689 0.029261839 0 4278255360
0.018312087 0.029260429 0 4278255360
0.018735535 0.0292408 0 4278255360
0.01922488 0.02927202 0 4278255360
0.019763958 0.029270887 0 4278255360
0.020273274 0.029186634 0 4278255360
0.020721685 0.029251628 0 4278255360
0.021292057 0.02920402 0 4278255360
0.021755461 0.029231433 0 4278255360
0.022183252 0.029193448 0 4278255360
0.022781834 0.029279035 0 4278255360
0.023242874 0.029260462 0 4278255360
0.02372223 0.029218478 0.00021600819 4278255360
0.02372223 0.029218478 0.00021600819 4294952960
-0.023717375 0.02976821 0.00017987394 4278255360
-0.02327764 0.02972029 0 4278255360
-0.02278972 0.029805209 0 4278255360
-0.022274777 0.029711282 0 4278255360
-0.021713799 0.029735766 0 4278255360
-0.021214606 0.029735643 0 4278255360
-0.020712262 0.029734261 0 4278255360
-0.020248795 0.029705986 0 4278255360
-0.019709066 0.029745333 0 4278255360
-0.019198749 0.029741336 0 4278255360
-0.018794157 0.029776933 0 4278255360
-0.018217759 0.029761376 0 4278255360
-0.017750103 0.029744247 0 4278255360
-0.017313613 0.029786384 0 4278255360
-0.016714757 0.029760271 0 4278255360
-0.016290447 0.029749144 0 4278255360
-0.015797557 0.029738035 0 4278255360
-0.015300426 0.029720411 0 4278255360
-0.014797308 0.029741595 0 4278255360
-0.014249373 0.029732011 0 4278255360
-0.013782468 0.029730245 0 4278255360
-0.013205832 0.029763797 0 4278255360
-0.012695478 0.029762594 0 4278255360
-0.012234841 0.029727401 0 4278255360
-0.011659469 0.029745167 0 4278255360
-0.011289024 0.029707538 0 4278255360
-0.010757509 0.02974743 0 4278255360
-0.010269477 0.029772082 0 4278255360
-0.009756987 0.029799994 0 4278255360
-0.0092622545 0.02978093 0 4278255360
-0.0087192962 0.029779268 0 4278255360
-0.0082396232 0.02976656 0 4278255360
-0.0077710925 0.029814642 0 4278255360
-0.0072358022 0.029777056 0 4278255360
-0.0067377635 0.029766368 0 4278255360
-0.0062703104 0.029765373 0 4278255360
-0.0057567279 0.029740388 0 4278255360
-0.0052126637 0.029732144 0 4278255360
-0.0047795656 0.029739123 0 4278255360
-0.0042126742 0.029782752 0 4278255360
-0.0037584587 0.029749714 0 4278255360
-0.0032507118 0.029706314 0 4278255360
-0.0027446228 0.029835397 0 4278255360
-0.002243412 0.029697809 0 4278255360
-0.0017668674 0.029783089 0 4278255360
-0.0011977472 0.029731421 0 4278255360
-0.00076771295 0.029762121 0 4278255360
-0.00021476434 0.029712511 0 4278255360
0.00022841102 0.029690586 0 4278255360
0.00078533543 0.029786015 0 4278255360
0.0012798663 0.029777557 0 4278255360
0.0016973866 0.02978871 0 4278255360
0.0022176858 0.029740151 0 4278255360
0.0027182379 0.02976818 0 4278255360
0.0032660393 0.029706087 0 4278255360
0.00376339 0.029750338 0 4278255360
0.004246382 0.029770458 0 4278255360
0.0047432724 0.029761733 0 4278255360
0.0052732993 0.02978307 0 4278255360
0.0057954146 0.029761184 0 4278255360
0.0062649557 0.029715749 0 4278255360
0.0067307698 0.029763667 0 4278255360
0.0072532552 0.029780149 0 4278255360
0.0077254898 0.029713262 0 4278255360
0.0082119228 0.029793378 0 4278255360
0.0087445956 0.029745838 0 4278255360
0.0093061859 0.029730804 0 4278255360
0.0097157015 0.029741598 0 4278255360
0.010257215 0.02970171 0 4278255360
0.010728185 0.029709108 0 4278255360
0.011315643 0.029783668 0 4278255360
0.011712719 0.029691879 0 4278255360
0.012199583 0.029749701 0 4278255360
0.012738552 0.029752208 0 4278255360
0.013306618 0.029776206 0 4278255360
0.013736339 0.029790802 0 4278255360
0.014249303 0.029728064 0 4278255360
0.014754818 0.02977412 0 4278255360
0.015231791 0.029764172 0 4278255360
0.015748136 0.029753538 0 4278255360
0.016252965 0.029781049 0 4278255360
0.016768292 0.029818257 0 4278255360
0.017183414 0.029741082 0 4278255360
0.017799666 0.029740851 0 4278255360
0.018250676 0.029730344 0 4278255360
0.018742526 0.029787825 0 4278255360
0.019232992 0.029723676 0 4278255360
0.019802872 0.029701674 0 4278255360
0.020259615 0.029746894 0 4278255360
0.020682393 0.029761648 0 4278255360
0.021243362 0.029746857 0 4278255360
0.021743454 0.029760934 0 4278255360
0.023247898 0.029773179 0 4278255360
0.023703972 0.029754397 0.00013274151 4278255360
-0.023302019 0.030243175 0 4278255360
-0.022738131 0.030216364 0 4278255360
-0.022218082 0.030273121 0 4278255360
-0.021735867 0.0303008 0 4278255360
-0.021264458 0.030214904 0 4278255360
-0.020720335 0.030175894 0 4278255360
-0.020250726 0.03024563 0 4278255360
-0.019760108 0.030215818 0 4278255360
-0.019318894 0.030198229 0 4278255360
-0.018763175 0.030316362 0 4278255360
-0.018296968 0.030273983 0 4278255360
-0.017739201 0.03025496 0 4278255360
-0.017278111 0.030238817 0 4278255360
-0.016727362 0.030221311 0 4278255360
-0.016299933 0.030288978 0 4278255360
-0.015774518 0.030256156 0 4278255360
-0.015196508 0.03034132 0 4278255360
-0.014773715 0.03022919 0 4278255360
-0.014308009 0.030273641 0 4278255360
-0.013663784 0.0302689 0 4278255360
-0.013227116 0.030281838 0 4278255360
-0.012736694 0.030240493 0 4278255360
-0.012280611 0.030239437 0 4278255360
-0.011773729 0.030279161 0 4278255360
-0.011255153 0.030236403 0 4278255360
-0.01078335 0.030145807 0 4278255360
-0.010328321 0.03024991 0 4278255360
-0.009757245 0.030241532 0 4278255360
-0.0092136152 0.030242421 0 4278255360
-0.0087078558 0.030259065 0 4278255360
-0.0082289306 0.030311294 0 4278255360
-0.0077489358 0.030254699 0 4278255360
-0.0072425604 0.030246699 0 4278255360
-0.0067736595 0.030250657 0 4278255360
-0.0062273582 0.030232247 0 4278255360
-0.005752801 0.030252682 0 4278255360
-0.0052805217 0.030236814 0 4278255360
-0.0047263307 0.030239018 0 4278255360
-0.0042244843 0.030271789 0 4278255360
-0.0037052315 0.03020248 0 4278255360
-0.0032732706 0.030203806 0 4278255360
-0.0027407715 0.030244121 0 4278255360
-0.0022467268 0.030227002 0 4278255360
-0.0017129707 0.030217428 0 4278255360
-0.0012463595 0.030212067 0 4278255360
-0.00073021487 0.030258879 0 4278255360
-0.00020910318 0.03023383 0 4278255360
0.00023914938 0.030229433 0 4278255360
0.00071780232 0.030176373 0 4278255360
0.0012834023 0.030288909 0 4278255360
0.0017247724 0.030267766 0 4278255360
0.0023065074 0.030243807 0 4278255360
0.0028278711 0.030267734 0 4278255360
0.003296426 0.030299848 0 4278255360
0.0037183501 0.030258708 0 4278255360
0.0042370954 0.030246112 0 4278255360
0.0046791602 0.03028439 0 4278255360
0.005286607 0.03026261 0 4278255360
0.0057461075 0.030266248 0 4278255360
0.006228684 0.030231748 0 4278255360
0.0067833834 0.03023845 0 4278255360
0.0072599319 0.030218946 0 4278255360
0.0077634295 0.030257089 0 4278255360
0.0082639391 0.03023576 0 4278255360
0.0087316865 0.030234337 0 4278255360
0.0092317201 0.030230114 0 4278255360
0.0097535709 0.030285267 0 4278255360
0.010238373 0.030305939 0 4278255360
0.010723531 0.030217046 0 4278255360
0.011257279 0.030254485 0 4278255360
0.01174024 0.030197866 0 4278255360
0.012241171 0.030260757 0 4278255360
0.012759279 0.030182324 0 4278255360
0.013252388 0.030238841 0 4278255360
0.013809471 0.030246388 0 4278255360
0.014268526 0.030254744 0 4278255360
0.014731918 0.030218758 0 4278255360
0.015246568 0.030267395 0 4278255360
0.015741501 0.030204391 0 4278255360
0.016176531 0.03023785 0 4278255360
0.016729487 0.0302731 0 4278255360
0.017303534 0.030242909 0 4278255360
0.017731123 0.030258914 0 4278255360
0.018249677 0.03026545 0 4278255360
0.018780649 0.030298442 0 4278255360
0.019256951 0.030237412 0 4278255360
0.01973225 0.030169606 0 4278255360
0.020231918 0.03026427 0 4278255360
0.020762146 0.030270308 0 4278255360
0.021256723 0.030187694 0 4278255360
0.021754885 0.030192606 0 4278255360
0.022329599 0.030222153 0 4278255360
0.022733515 0.030263586 0 4278255360
0.023223827 0.030260559 0 4278255360
0.023716936 0.030230263 0.00016515353 4278255360
-0.021703908 0.030746907 0 4278255360
-0.02026788 0.030704305 0 4278255360
-0.019767711 0.030742994 0 4278255360
-0.019274013 0.030716553 0 4278255360
-0.018775312 0.030780723 0 4278255360
-0.01825776 0.030771354 0 4278255360
-0.017702388 0.030724309 0 4278255360
-0.017240986 0.030716203 0 4278255360
-0.016732639 0.030780701 0 4278255360
-0.015708594 0.030807575 0 4278255360
-0.015279652 0.030829251 0 4278255360
-0.014727461 0.030791635 0 4278255360
-0.014270143 0.030750422 0 4278255360
-0.013816766 0.030711694 0 4278255360
-0.013259248 0.030774023 0 4278255360
-0.012756611 0.030758128 0 4278255360
-0.012258271 0.030748297 0 4278255360
-0.011766695 0.030772438 0 4278255360
-0.011245127 0.030764807 0 4278255360
-0.010779088 0.030791368 0 4278255360
-0.010274344 0.030688569 0 4278255360
-0.0097613279 0.030791564 0 4278255360
-0.0092403088 0.030772865 0 4278255360
-0.0087080142 0.030766297 0 4278255360
-0.0082228826 0.030767182 0 4278255360
-0.00775688 0.030667594 0 4278255360
-0.0072394968 0.030713025 0 4278255360
-0.0067777149 0.030785024 0 4278255360
-0.0062250402 0.030727979 0 4278255360
-0.0057861549 0.030744351 0 4278255360
-0.0052153878 0.03074564 0 4278255360
-0.0047586355 0.030664017 0 4278255360
-0.0042344569 0.030781509 0 4278255360
-0.0037280342 0.030767756 0 4278255360
-0.0032487118 0.030772954 0 4278255360
-0.0027425408 0.030742567 0 4278255360
-0.0022723069 0.030688884 0 4278255360
-0.001722169 0.030822845 0 4278255360
-0.0012598911 0.030724971 0 4278255360
-0.00071840972 0.030751897 0 4278255360
-0.00025398581 0.030764638 0 4278255360
0.00035712912 0.030753409 0 4278255360
0.00077215163 0.03075519 0 4278255360
0.0012379802 0.030743025 0 4278255360
0.0017455902 0.030790469 0 4278255360
0.0022481179 0.030739583 0 4278255360
0.0027414178 0.030809613 0 4278255360
0.0032776245 0.030749369 0 4278255360
0.0037581001 0.030735211 0 4278255360
0.0042349431 0.030702963 0 4278255360
0.0047444026 0.030778097 0 4278255360
0.0052304948 0.030801777 0 4278255360
0.0062831366 0.030815622 0 4278255360
0.0067823967 0.030739676 0 4278255360
0.0072505889 0.03073197 0 4278255360
0.0078036697 0.030728752 0 4278255360
0.0082863094 0.030716114 0 4278255360
0.0087933373 0.030758023 0 4278255360
0.0092554251 0.03080699 0 4278255360
0.0097378325 0.03073257 0 4278255360
0.010282201 0.030747781 0 4278255360
0.01073147 0.030802945 0 4278255360
0.011237604 0.030723253 0 4278255360
0.011731535 0.030709976 0 4278255360
0.012284569 0.030743834 0 4278255360
0.012699218 0.030780887 0 4278255360
0.013280133 0.030805135 0 4278255360
0.013738354 0.030744543 0 4278255360
0.014244323 0.030811695 0 4278255360
0.01470418 0.030685434 0 4278255360
0.01527132 0.030748425 0 4278255360
0.015701331 0.030744491 0 4278255360
0.016217273 0.030759661 0 4278255360
0.016828381 0.030743813 0 4278255360
0.017197246 0.030742472 0 4278255360
0.017740129 0.030731382 0 4278255360
0.018274494 0.030751651 0 4278255360
0.018761495 0.03075291 0 4278255360
0.019282769 0.030779503 0 4278255360
0.019713217 0.030784244 0 4278255360
0.020249613 0.030746488 0 4278255360
-0.019746728 0.031212969 0 4278255360
-0.019184059 0.031240325 0 4278255360
-0.018759569 0.031249912 0 4278255360
-0.015751289 0.03171305 0.0001445317 4278255360
-0.015304884 0.031214204 0 4278255360
-0.014783729 0.031243222 0 4278255360
-0.014234596 0.031226736 0 4278255360
-0.01377682 0.031245833 0 4278255360
-0.013299948 0.031232862 0 4278255360
-0.012701579 0.031294841 0 4278255360
-0.012246023 0.031271558 0 4278255360
-0.011719541 0.03123039 0 4278255360
-0.011276016 0.031232659 0 4278255360
-0.01072266 0.031239208 0 4278255360
-0.010222189 0.031257439 0 4278255360
-0.0097293993 0.031147989 0 4278255360
-0.007771994 0.03124357 0 4278255360
-0.0057980595 0.031282708 0 4278255360
-0.005244453 0.031244323 0 4278255360
-0.0047926982 0.031267159 0 4278255360
-0.0042874794 0.03127655 0 4278255360
-0.003739319 0.031249132 0 4278255360
-0.0032357704 0.031280652 0 4278255360
-0.0012393338 0.031223753 0 4278255360
0.00029287284 0.031237623 0 4278255360
0.00077428157 0.031267293 0 4278255360
0.0012258724 0.031250928 0 4278255360
0.0017329782 0.031318258 0 4278255360
0.0022602165 0.031256631 0 4278255360
0.0027068867 0.031252023 0 4278255360
0.0032318276 0.031206632 0 4278255360
0.0062567238 0.031248899 0 4278255360
0.0067149941 0.031233214 0 4278255360
0.0072130407 0.031222904 0 4278255360
0.0077233939 0.03124292 0 4278255360
0.0082255648 0.03120691 0 4278255360
0.008726906 0.03128159 0 4278255360
0.0093003428 0.031195899 0 4278255360
0.0097374264 0.031259101 0 4278255360
0.010244869 0.031196227 0 4278255360
0.010779854 0.03120384 0 4278255360
0.011262483 0.031262048 0 4278255360
0.013727793 0.031291507 0 4278255360
0.014228314 0.031261474 0 4278255360
0.014722743 0.031238697 0 4278255360
0.015272811 0.031249361 0 4278255360
0.015739575 0.031249523 0 4278255360
0.01627511 0.031237377 0 4278255360
0.016727069 0.031221939 0 4278255360
0.017261747 0.031278018 0 4278255360
0.017716387 0.031242928 0 4278255360
0.019753693 0.031258561 0 4278255360
0.020269226 0.03126486 0 4278255360
-0.020742705 0.031687438 9.7289274e-05 4278255360
-0.015245844 0.03170073 0.00015319836 4278255360
-0.014288762 0.031700425 0.00015386801 4278255360
-0.013263085 0.03169252 0.00014962941 4278255360
-0.012753533 0.031700522 0.00013569099 4278255360
-0.012184486 0.031707093 0.00016015912 4278255360
-0.011754192 0.031723592 0.00015426693 4278255360
-0.00081019261 0.031710595 0.00020657525 4278255360
0.0067409328 0.031703554 0.00015895658 4278255360
0.0077297338 0.031694908 0.00015011206 4278255360
0.0082696145 0.031717051 0.00017858263 4278255360
0.0087458612 0.031710166 0.00017280848 4278255360
0.0092524216 0.031712215 0.00018003555 4278255360
0.010265067 0.031702362 0.00014288514 4278255360
0.010737503 0.031705093 0.00016698704 4278255360
0.018176178 -0.031749997 0.0006970301 4278255360
0.0072307 -0.031749997 0.00075190683 4278255360
0.0077467859 -0.031750008 0.00076656789 4278255360
0.017764196 -0.031750008 0.00078210997 4278255360
0.019669166 -0.031749997 0.00072111737 4278255360
0.007253258 -0.030771952 0 4294952960
0.0077751162 -0.030744331 0 4294952960
-0.0067091142 -0.030286113 0 4294952960
0.0082752751 -0.03025936 0 4294952960
-0.0067721657 -0.029714819 0 4294952960
-0.011762598 -0.029243497 0 4294952960
-0.011277991 -0.029251298 0 4294952960
0.023750005 -0.029255562 0.00077368366 4294952960
-0.012269805 -0.02870602 0 4294952960
-0.011748033 -0.028747963 0 4294952960
-0.0087270392 -0.028793905 0 4294952960
0.0017383774 -0.02870116 0 4294952960
0.0022823031 -0.028712628 0 4294952960
0.0027992474 -0.02875342 0 4294952960
0.02328646 -0.028704396 0 4294952960
-0.012302089 -0.02827633 0 4294952960
-0.011749689 -0.028271787 0 4294952960
-0.011749689 -0.028271787 0 4294952960
-0.009299376 -0.028202903 0 4294952960
-0.0087654022 -0.028258614 0 4294952960
0.0022528681 -0.028177885 0 4294952960
0.002793042 -0.028270826 0 4294952960
0.023285536 -0.028179538 0 4294952960
-0.009299376 -0.028202903 0 4294952960
-0.008794182 -0.027748113 0 4294952960
-0.0077546826 -0.027745489 0 4294952960
-0.00172132 -0.027723828 0 4294952960
0.0022440732 -0.027754338 0 4294952960
0.002757825 -0.027803237 0 4294952960
0.00325394 -0.027699595 0 4294952960
0.0036951767 -0.027786836 0 4294952960
0.0042262306 -0.02776229 0 4294952960
0.023750005 -0.027781485 0.00079426926 4278255360
-0.017269121 -0.027278425 0 4294952960
-0.0087515423 -0.027278315 0 4294952960
-0.0083068628 -0.027253171 0 4294952960
-0.0077546826 -0.027745489 0 4294952960
0.0032982239 -0.027185652 0 4294952960
0.0036923999 -0.027284699 0 4294952960
0.0042947456 -0.027248381 0 4294952960
-0.008716289 -0.026724016 0 4294952960
-0.0083550466 -0.026751835 0 4294952960
-0.0077470294 -0.026775105 0 4294952960
0.0032483623 -0.026783725 0 4294952960
0.003759793 -0.026775507 0 4294952960
0.0041990718 -0.026714573 0 4294952960
-0.01778587 -0.026290877 0 4294952960
-0.017204791 -0.02628048 0 4294952960
-0.012739197 -0.025718223 0 4294952960
-0.012240744 -0.026218874 0 4294952960
-0.0082128784 -0.026224582 0 4294952960
-0.0032151109 -0.026214674 0 4294952960
0.0037597527 -0.026271563 0 4294952960
0.0042798826 -0.026273135 0 4294952960
-0.017753845 -0.025756467 0 4294952960
-0.017221935 -0.025769049 0 4294952960
-0.016751131 -0.025724092 0 4294952960
-0.012276635 -0.025786566 0 4294952960
-0.0032529912 -0.025713522 0 4294952960
-0.0027508396 -0.025736187 0 4294952960
0.0027351978 -0.025734434 0 4294952960
0.00323225 -0.025726616 0 4294952960
0.0037006694 -0.025784824 0 4294952960
0.0041653523 -0.025754934 0 4294952960
0.0047433875 -0.025831273 0 4294952960
0.0052506011 -0.025747783 0 4294952960
-0.017751897 -0.025237491 0 4294952960
-0.017229553 -0.025292883 0 4294952960
-0.016745389 -0.025268571 0 4294952960
-0.016745389 -0.025268571 0 4294952960
-0.0042667747 -0.025254427 0 4294952960
-0.0032686009 -0.025231749 0 4294952960
-0.002762381 -0.025291856 0 4294952960
0.0018132293 -0.025186453 0 4294952960
0.0023056131 -0.025234409 0 4294952960
0.0037698876 -0.025282018 0 4294952960
0.004263368 -0.025234979 0 4294952960
0.0047631916 -0.025261827 0 4294952960
0.0051879049 -0.025285339 0 4294952960
0.015223654 -0.025251973 0 4294952960
-0.021205004 -0.024771625 0 4294952960
-0.019762019 -0.024786819 0 4294952960
-0.019207293 -0.024777163 0 4294952960
-0.0172434 -0.024720274 0 4294952960
-0.016775271 -0.024770265 0 4294952960
-0.016282089 -0.024769673 0 4294952960
0.00072708394 -0.024747524 0 4294952960
0.0012398541 -0.024728538 0 4294952960
0.0017132793 -0.024696123 0 4294952960
0.015203564 -0.024726357 0 4294952960
0.015767463 -0.024756651 0 4294952960
-0.021263137 -0.024233233 0 4294952960
-0.020746034 -0.024200765 0 4294952960
-0.020265808 -0.024282353 0 4294952960
-0.019726152 -0.024266513 0 4294952960
-0.019228173 -0.024277678 0 4294952960
-0.018744782 -0.024270641 0 4294952960
-0.017190315 -0.02421454 0 4294952960
-0.016741335 -0.024222482 0 4294952960
-0.016198335 -0.024212966 0 4294952960
0.015265435 -0.024257336 0 4294952960
0.015737599 -0.024265423 0 4294952960
0.01621877 -0.024242694 0 4294952960
-0.021747021 -0.023688545 0 4294952960
-0.021240331 -0.023758657 0 4294952960
-0.020738807 -0.023787064 0 4294952960
-0.020283386 -0.023731925 0 4294952960
-0.019712377 -0.023783378 0 4294952960
-0.019211551 -0.023718566 0 4294952960
-0.018764287 -0.02370818 0 4294952960
-0.016710423 -0.023784619 0 4294952960
-0.016169047 -0.023754995 0 4294952960
-0.014219848 -0.023802305 0 4294952960
-0.0037473154 -0.023778748 0 4294952960
0.0077333096 -0.023682708 0 4294952960
0.016248791 -0.023751492 0 4294952960
0.016747326 -0.023780234 0 4294952960
-0.022243772 -0.023196805 0 4294952960
-0.021762677 -0.023234619 0 4294952960
-0.021230958 -0.023277441 0 4294952960
-0.020774757 -0.023259694 0 4294952960
-0.020208299 -0.023279348 0 4294952960
-0.01974302 -0.023215737 0 4294952960
-0.019310726 -0.023267694 0 4294952960
-0.018749017 -0.023217026 0 4294952960
-0.016284201 -0.023277329 0 4294952960
-0.013728923 -0.023291714 0 4294952960
-0.0042237481 -0.023245737 0 4294952960
0.0027090106 -0.023257917 0 4294952960
0.0032156194 -0.023229856 0 4294952960
0.0047384622 -0.02327683 0 4294952960
0.016795371 -0.023214715 0 4294952960
-0.02124344 -0.022793557 0 4294952960
-0.019763712 -0.022762274 0 4294952960
-0.019298347 -0.02271959 0 4294952960
-0.018808208 -0.022785764 0 4294952960
-0.018236907 -0.022723887 0 4294952960
-0.014266112 -0.022760928 0 4294952960
-0.013795563 -0.022810778 0 4294952960
0.0032473356 -0.022778464 0 4294952960
0.0037319651 -0.022738891 0 4294952960
0.004738722 -0.02278539 0 4294952960
0.008295279 -0.022696128 0 4294952960
0.023750005 -0.022712629 0.00073681929 4294952960
0.023750005 -0.022712629 0.00073681929 4278255360
-0.019273732 -0.022229997 0 4294952960
-0.018746801 -0.022249462 0 4294952960
-0.018244596 -0.022218367 0 4294952960
-0.014225423 -0.022238858 0 4294952960
-0.013747745 -0.022285657 0 4294952960
0.0032897189 -0.022251911 0 4294952960
0.023280652 -0.022207499 0 4294952960
0.023750005 -0.022263801 0.00074252236 4278255360
-0.018252734 -0.021725807 0 4294952960
-0.017743908 -0.021739407 0 4294952960
-0.015714463 -0.021764804 0 4294952960
-0.00022016202 -0.021728041 0 4294952960
0.0032582143 -0.021758189 0 4294952960
0.023750005 -0.021738593 0.00070216414 4278255360
-0.017797427 -0.021223873 0 4294952960
-0.017283862 -0.021225221 0 4294952960
-0.015732264 -0.021232121 0 4294952960
-0.015732264 -0.021232121 0 4294952960
-0.014222708 -0.021271717 0 4294952960
-0.0017244179 -0.021266114 0 4294952960
0.023750005 -0.020787423 0.00067327404 4278255360
-0.017784553 -0.020753803 0 4294952960
-0.01724481 -0.020725358 0 4294952960
-0.01724481 -0.020725358 0 4294952960
-0.015737439 -0.02077709 0 4294952960
-0.015273033 -0.020780712 0 4294952960
-0.0057257712 -0.020742798 0 4294952960
-0.0047988417 -0.020740705 0 4294952960
-0.0042180875 -0.020761253 0 4294952960
-0.0037818414 -0.020735398 0 4294952960
-0.00027748238 -0.020676874 0 4294952960
0.0002484229 -0.020739196 0 4294952960
0.010264657 -0.02073089 0 4294952960
0.023750005 -0.020787423 0.00067327404 4278255360
0.023750005 -0.020787423 0.00067327404 4278255360
0.023750005 -0.020787423 0.00067327404 4294952960
0.023750005 -0.020787423 0.00067327404 4294952960
-0.017254842 -0.02021263 0 4294952960
-0.016750379 -0.020270975 0 4294952960
-0.016219078 -0.020226056 0 4294952960
-0.015775235 -0.020217776 0 4294952960
-0.015243484 -0.020270292 0 4294952960
-0.0057316623 -0.020249875 0 4294952960
-0.0052234079 -0.02023031 0 4294952960
-0.0046977159 -0.020187059 0 4294952960
-0.00074640062 -0.019779701 0 4294952960
-0.00019724625 -0.020251293 0 4294952960
0.023750005 -0.020244068 0.00075711461 4278255360
0.023750005 -0.020244068 0.00075711461 4294952960
-0.016276231 -0.01973547 0 4294952960
-0.015700251 -0.019749491 0 4294952960
-0.0062431502 -0.019726967 0 4294952960
-0.0057498468 -0.019749541 0 4294952960
-0.0052740877 -0.019739481 0 4294952960
-0.0047448417 -0.019775167 0 4294952960
-0.0042524254 -0.019701038 0 4294952960
0.00029753626 -0.019703448 0 4294952960
0.016820965 -0.019715626 0 4294952960
0.023750005 -0.019755088 0.00074182753 4278255360
0.023750005 -0.019755088 0.00074182753 4294952960
0.023750005 -0.019755088 0.00074182753 4294952960
-0.015724692 -0.019216763 0 4294952960
-0.006263522 -0.019276092 0 4294952960
-0.0057774484 -0.019245075 0 4294952960
-0.0053243651 -0.019191187 0 4294952960
-0.00029113991 -0.019228168 0 4294952960
0.016805328 -0.019241722 0 4294952960
0.017268931 -0.019226119 0 4294952960
0.023259534 -0.01927877 0 4294952960
0.023750005 -0.019222084 0.00071025552 4278255360
0.023750005 -0.019222084 0.00071025552 4278255360
-0.015700113 -0.01869957 0 4294952960
-0.0057887714 -0.018720688 0 4294952960
-0.005236154 -0.018747207 0 4294952960
0.016236121 -0.018726258 0 4294952960
0.023242084 -0.018745916 0 4294952960
0.023750005 -0.018735385 0.0007431691 4278255360
-0.015294897 -0.018268071 0 4294952960
-0.0057521923 -0.018220868 0 4294952960
0.0072261151 -0.018193303 0 4294952960
0.013280898 -0.01827402 0 4294952960
0.017181475 -0.01825163 0 4294952960
0.023249943 -0.018252507 0 4294952960
0.023750005 -0.018275836 0.00073238224 4278255360
0.023750005 -0.018275836 0.00073238224 4278255360
-0.016248733 -0.017740266 0 4294952960
-0.01577767 -0.017758397 0 4294952960
-0.015238565 -0.017738061 0 4294952960
-0.00530633 -0.017769022 0 4294952960
0.0072154496 -0.017708626 0 4294952960
0.012782502 -0.017728597 0 4294952960
0.013214554 -0.017793365 0 4294952960
0.017741546 -0.017745577 0 4294952960
0.022714447 -0.017724006 0 4294952960
0.023237126 -0.017727323 0 4294952960
0.023750005 -0.017758789 0.00077281869 4278255360
-0.016243234 -0.017224751 0 4294952960
-0.015739705 -0.017295169 0 4294952960
-0.015303761 -0.017219946 0 4294952960
0.0052546612 -0.017247695 0 4294952960
0.0077363262 -0.017248861 0 4294952960
0.008262137 -0.017230449 0 4294952960
0.0087616388 -0.017259009 0 4294952960
0.012740901 -0.017271023 0 4294952960
0.013319279 -0.017272102 0 4294952960
0.02327387 -0.017254068 0 4294952960
0.023750005 -0.017188305 0.0007229186 4278255360
0.023750005 -0.017188305 0.0007229186 4278255360
-0.016264305 -0.016798535 0 4294952960
-0.01572774 -0.016735474 0 4294952960
-0.015299516 -0.016797343 0 4294952960
-0.0082960101 -0.016767716 0 4294952960
-0.007763443 -0.01667084 0 4294952960
0.004715302 -0.016720356 0 4294952960
0.0052208998 -0.016777422 0 4294952960
0.0077239536 -0.016710702 0 4294952960
0.0082623856 -0.016804803 0 4294952960
0.008730147 -0.01680918 0 4294952960
0.0092577571 -0.016782776 0 4294952960
0.013220225 -0.016724862 0 4294952960
0.013759079 -0.016690878 0 4294952960
0.023217641 -0.016743295 0 4294952960
0.023750003 -0.016725922 0.0007685179 4278255360
-0.016773764 -0.016254388 0 4294952960
-0.016234323 -0.016214564 0 4294952960
-0.015793147 -0.016286923 0 4294952960
-0.0082893856 -0.016284075 0 4294952960
-0.0077279606 -0.016211351 0 4294952960
-0.0072954712 -0.016293529 0 4294952960
0.0042811972 -0.016255466 0 4294952960
0.0047286428 -0.016251214 0 4294952960
0.0052323709 -0.016270299 0 4294952960
0.0057564611 -0.016234582 0 4294952960
0.0077536209 -0.016280517 0 4294952960
0.0092875026 -0.016206482 0 4294952960
0.013220223 -0.016255558 0 4294952960
0.013758174 -0.016269183 0 4294952960
0.023284836 -0.016250014 0 4294952960
0.023750005 -0.016255796 0.00076100096 4278255360
-0.017692154 -0.015751991 0 4294952960
-0.016789701 -0.015768614 0 4294952960
-0.016225846 -0.015748674 0 4294952960
-0.015783524 -0.015723106 0 4294952960
-0.0077346065 -0.01572972 0 4294952960
-0.0072664656 -0.015716521 0 4294952960
-0.0067698066 -0.015783245 0 4294952960
0.0042709103 -0.015806565 0 4294952960
0.0047768387 -0.015756287 0 4294952960
0.0051682177 -0.015780801 0 4294952960
0.0057312227 -0.015709022 0 4294952960
0.0092624128 -0.015748076 0 4294952960
0.01321987 -0.015704863 0 4294952960
0.01374896 -0.015736016 0 4294952960
0.023202702 -0.015719034 0 4294952960
0.023750005 -0.015779218 0.00074485329 4278255360
-0.017191948 -0.015192277 0 4294952960
-0.016787864 -0.015262298 0 4294952960
-0.016212238 -0.015260614 0 4294952960
-0.015722105 -0.015250352 0 4294952960
-0.0077491999 -0.015237961 0 4294952960
-0.0072374907 -0.015227714 0 4294952960
0.0031926315 -0.015197707 0 4294952960
0.0042161238 -0.015297222 0 4294952960
0.0047572441 -0.015224956 0 4294952960
0.0052224444 -0.015193536 0 4294952960
0.0062253322 -0.015232016 0 4294952960
0.0088147298 -0.015259254 0 4294952960
0.013758156 -0.015268212 0 4294952960
0.02270419 -0.015256532 0 4294952960
0.023301892 -0.015226877 0 4294952960
0.023750005 -0.015199559 0.00076063938 4278255360
0.023750005 -0.015199559 0.00076063938 4278255360
-0.017225318 -0.014747752 0 4294952960
-0.01670241 -0.014704064 0 4294952960
-0.016232936 -0.014713255 0 4294952960
-0.015706263 -0.014758673 0 4294952960
-0.0082745962 -0.01476173 0 4294952960
-0.0072592651 -0.014769612 0 4294952960
0.0037127594 -0.01469711 0 4294952960
0.004726815 -0.014679906 0 4294952960
0.0052337386 -0.014694469 0 4294952960
0.0057525998 -0.014762324 0 4294952960
0.0062484965 -0.014792603 0 4294952960
0.02275065 -0.014715836 0 4294952960
0.023257188 -0.01477363 0 4294952960
0.023750005 -0.014719738 0.00077318971 4278255360
0.023750005 -0.014719738 0.00077318971 4278255360
-0.016763739 -0.014275632 0 4294952960
-0.016231198 -0.014275582 0 4294952960
-0.016231198 -0.014275582 0 4294952960
-0.013746914 -0.014199873 0 4294952960
-0.013269086 -0.014220308 0 4294952960
-0.0083039794 -0.014234522 0 4294952960
-0.00627294 -0.014245491 0 4294952960
-0.0057800752 -0.014244169 0 4294952960
0.0032813798 -0.014264059 0 4294952960
0.0037502246 -0.014213653 0 4294952960
0.0043208888 -0.014163014 0 4294952960
0.0047862236 -0.01424061 0 4294952960
0.0052151554 -0.0142479 0 4294952960
0.0057335426 -0.014280498 0 4294952960
0.0062256563 -0.014244541 0 4294952960
0.022262754 -0.01425062 0 4294952960
0.022702666 -0.014312389 0 4294952960
0.023287887 -0.014233307 0 4294952960
0.023750005 -0.014201395 0.00079759932 4278255360
0.023750005 -0.014201395 0.00079759932 4278255360
-0.016728306 -0.013709244 0 4294952960
-0.016252255 -0.013731643 0 4294952960
-0.015195454 -0.013705106 0 4294952960
-0.014306349 -0.013778538 0 4294952960
-0.013725278 -0.013699315 0 4294952960
-0.013297264 -0.013752623 0 4294952960
-0.0062910253 -0.013696188 0 4294952960
0.0037693211 -0.013713992 0 4294952960
0.0041986932 -0.01372142 0 4294952960
0.0047346922 -0.013741263 0 4294952960
0.0053005395 -0.013749065 0 4294952960
0.0057748575 -0.013715585 0 4294952960
0.0062649627 -0.013739815 0 4294952960
0.017251158 -0.01370142 0 4294952960
0.022227354 -0.013765622 0 4294952960
0.022731068 -0.013766998 0 4294952960
0.023282124 -0.013746698 0 4294952960
0.023750005 -0.013708466 0.00074661442 4278255360
0.023750005 -0.013708466 0.00074661442 4278255360
-0.020244576 -0.013287994 0 4294952960
-0.016782593 -0.013254452 0 4294952960
-0.016281359 -0.013281628 0 4294952960
-0.015789222 -0.013227689 0 4294952960
-0.015267679 -0.013292868 0 4294952960
-0.014688599 -0.0132795 0 4294952960
-0.014217889 -0.013220171 0 4294952960
-0.013742777 -0.013297737 0 4294952960
-0.00071795651 -0.013296451 0 4294952960
-0.0002715202 -0.013193852 0 4294952960
0.00029399715 -0.0132475 0 4294952960
0.0037393128 -0.013236185 0 4294952960
0.0052564926 -0.013287557 0 4294952960
0.0057400479 -0.01328436 0 4294952960
0.0062469896 -0.013324928 0 4294952960
0.0067309225 -0.013272402 0 4294952960
0.022760563 -0.01330423 0 4294952960
0.023249326 -0.013235542 0 4294952960
0.023750005 -0.013266554 0.00078072201 4278255360
