# .PCD v0.7 - Point Cloud Data file format
VERSION 0.7
FIELDS x y z
SIZE 4 4 4
TYPE F F F
COUNT 1 1 1
WIDTH 568
HEIGHT 1
VIEWPOINT 0 0 0 1 0 0 0
POINTS 568
DATA ascii
-0.021580189 0.031435102 -1.7163558e-05
-0.021274613 0.031432506 -1.75805e-05
-0.020642189 0.031427134 -1.8443403e-05
-0.020156115 0.031423002 -1.9106625e-05
-0.019663729 0.031418823 -1.9778459e-05
-0.01908269 0.031413887 -2.0571253e-05
-0.018642766 0.031410147 -2.1171503e-05
-0.01809568 0.031405501 -2.1917973e-05
-0.017664209 0.031401835 -2.2506689e-05
-0.017155053 0.03139751 -2.3201403e-05
-0.016676513 0.031393446 -2.3854345e-05
-0.016167384 0.031389121 -2.4549023e-05
-0.015657242 0.031384785 -2.5245083e-05
-0.01513523 0.031380352 -2.5957339e-05
-0.014620645 0.031375982 -2.6659462e-05
-0.01413732 0.031371873 -2.7318929e-05
-0.013632511 0.031367585 -2.8007715e-05
-0.013130945 0.031363327 -2.8692073e-05
-0.012654187 0.031359274 -2.9342582e-05
-0.012142422 0.031354927 -3.0040857e-05
-0.011648914 0.031350736 -3.0714218e-05
-0.011145644 0.031346459 -3.1400905e-05
-0.010658599 0.031342324 -3.2065451e-05
-0.010166735 0.031338144 -3.2736571e-05
-0.0096696187 0.031333923 -3.3414857e-05
-0.0091459798 0.031329472 -3.4129334e-05
-0.0086775981 0.031325493 -3.4768414e-05
-0.0082432879 0.031321805 -3.5361005e-05
-0.007247794 0.031313349 -3.6719302e-05
-0.0066264919 0.03130807 -3.7567032e-05
-0.0061550592 0.031304065 -3.8210273e-05
-0.0056097177 0.031299435 -3.8954364e-05
-0.0051624821 0.031295635 -3.9564591e-05
-0.0046734898 0.031291481 -4.0231793e-05
-0.0040888302 0.031286512 -4.1029529e-05
-0.0035731904 0.031282134 -4.1733088e-05
-0.0031361771 0.03127842 -4.2329371e-05
-0.0026753172 0.031274505 -4.2958189e-05
-0.0022104746 0.031270556 -4.3592438e-05
-0.0017063379 0.031266272 -4.4280307e-05
-0.0011292762 0.031261373 -4.5067674e-05
-0.00065694621 0.031257361 -4.5712142e-05
-0.00021030672 0.031253565 -4.6321555e-05
0.00032044132 0.031249056 -4.7045731e-05
0.00082993385 0.031244729 -4.7740905e-05
0.0012733953 0.031240961 -4.8345981e-05
0.0017897098 0.031236576 -4.9050464e-05
0.0023783948 0.031231575 -4.985369e-05
0.0028661555 0.03122743 -5.0519215e-05
0.0033537429 0.03122329 -5.1184499e-05
0.0038901954 0.031218732 -5.1916457e-05
0.0043445583 0.031214872 -5.2536412e-05
0.0048668557 0.031210436 -5.3249056e-05
0.0053211865 0.031206576 -5.3868964e-05
0.0058178566 0.031202357 -5.4546643e-05
0.006374253 0.03119763 -5.5305816e-05
0.0068355161 0.031193711 -5.5935183e-05
0.0073372074 0.031189449 -5.6619712e-05
0.0078565581 0.031185038 -5.7328336e-05
0.0083650136 0.031180719 -5.8022095e-05
0.0088649727 0.031176472 -5.870426e-05
0.009359315 0.031172272 -5.9378763e-05
0.0098729497 0.031167908 -6.007959e-05
0.010340566 0.031163936 -6.0717626e-05
0.010869307 0.031159444 -6.1439059e-05
0.011373478 0.031155162 -6.2126972e-05
0.011800721 0.031151533 -6.2709922e-05
0.012333863 0.031147003 -6.3437365e-05
0.012815109 0.031142915 -6.4093998e-05
0.01329442 0.031138843 -6.474799e-05
0.013853216 0.031134097 -6.5510438e-05
0.014332926 0.031130021 -6.6164976e-05
0.014852644 0.031125607 -6.6874098e-05
0.015339376 0.031121472 -6.7538218e-05
0.01579449 0.031117605 -6.8159199e-05
0.016346162 0.031112919 -6.8911919e-05
0.01690758 0.03110815 -6.9677946e-05
0.017355615 0.031104343 -7.0289265e-05
0.017863976 0.031100025 -7.0982889e-05
0.018314827 0.031096196 -7.1598057e-05
0.01886647 0.031091509 -7.235074e-05
0.019348651 0.031087413 -7.3008647e-05
0.01981508 0.031083452 -7.364506e-05
0.020369753 0.031078739 -7.4401883e-05
0.020855328 0.031074613 -7.5064425e-05
0.021265035 0.031071134 -7.5623444e-05
0.0218924 0.031065805 -7.6479453e-05
0.022346906 0.031061944 -7.7099598e-05
0.022773299 0.031058321 -7.7681383e-05
0.023312135 0.031053744 -7.8416597e-05
0.0236469 0.0310509 -7.8873367e-05
-0.021027612 0.031430408 -1.7917519e-05
-0.019781208 0.031419817 -1.9618165e-05
-0.019115228 0.031414162 -2.0526857e-05
-0.018626837 0.031410012 -2.1193238e-05
-0.015765693 0.031385709 -2.5097108e-05
-0.015228665 0.031381145 -2.5829853e-05
-0.014633004 0.031376086 -2.66426e-05
-0.01420627 0.031372461 -2.7224853e-05
-0.013703858 0.031368192 -2.7910364e-05
-0.013213092 0.031364024 -2.8579987e-05
-0.0127565 0.031360146 -2.9202982e-05
-0.012276431 0.031356066 -2.9858009e-05
-0.011686252 0.031351052 -3.0663272e-05
-0.011144988 0.031346455 -3.1401796e-05
-0.010564213 0.031341519 -3.2194235e-05
-0.010119229 0.031337742 -3.2801392e-05
-0.0096056676 0.031333379 -3.3502114e-05
-0.0076490263 0.031316757 -3.6171841e-05
-0.0056254473 0.031299565 -3.89329e-05
-0.0053515551 0.03129724 -3.9306611e-05
-0.0047749695 0.031292342 -4.0093331e-05
-0.004182593 0.031287309 -4.0901596e-05
-0.0035901857 0.031282276 -4.17099e-05
-0.0032776147 0.031279624 -4.2136387e-05
-0.0026326845 0.031274144 -4.3016356e-05
-0.0013490781 0.03126324 -4.4767767e-05
-0.00091469276 0.031259548 -4.5360459e-05
0.00018573692 0.031250201 -4.6861933e-05
0.00085013424 0.031244557 -4.7768466e-05
0.0013021585 0.031240717 -4.8385227e-05
0.0018302115 0.031236231 -4.9105725e-05
0.0023570959 0.031231755 -4.982463e-05
0.00282531 0.031227779 -5.0463481e-05
0.0031884257 0.031224694 -5.0958934e-05
0.0064070611 0.03119735 -5.5350582e-05
0.0068834308 0.031193305 -5.6000557e-05
0.0073315445 0.031189498 -5.6611985e-05
0.0078864936 0.031184783 -5.7369183e-05
0.0083860569 0.03118054 -5.8050806e-05
0.0088473689 0.031176621 -5.8680242e-05
0.0093763396 0.031172127 -5.9401991e-05
0.0098673468 0.031167956 -6.0071943e-05
0.010394227 0.03116348 -6.0790841e-05
0.010856427 0.031159554 -6.1421488e-05
0.011215593 0.031156503 -6.1911553e-05
0.011890528 0.031150769 -6.2832463e-05
0.012398943 0.03114645 -6.3526168e-05
0.012874794 0.031142408 -6.4175438e-05
0.013357131 0.03113831 -6.4833555e-05
0.013825769 0.03113433 -6.5472988e-05
0.014296445 0.031130331 -6.6115201e-05
0.01488542 0.031125328 -6.6918823e-05
0.015406805 0.031120898 -6.7630222e-05
0.015859278 0.031117056 -6.8247595e-05
0.016379869 0.031112632 -6.895791e-05
0.016819896 0.031108895 -6.9558308e-05
0.017358273 0.031104321 -7.0292888e-05
0.017913204 0.031099606 -7.1050061e-05
0.018383779 0.031095609 -7.1692135e-05
0.018909773 0.031091141 -7.2409821e-05
0.019386305 0.031087093 -7.3060022e-05
0.019807285 0.031083517 -7.363443e-05
0.020259738 0.031079674 -7.4251773e-05
-0.022249222 0.031913742 0.023892449
-0.021555498 0.031907838 0.023890849
-0.021063574 0.031903651 0.023889715
-0.020598656 0.031899691 0.023888642
-0.020120198 0.031895619 0.023887537
-0.019565657 0.031890895 0.02388626
-0.019092502 0.031886868 0.023885168
-0.018626047 0.031882897 0.023884092
-0.018107845 0.031878486 0.023882896
-0.0175876 0.031874057 0.023881696
-0.016606243 0.031865701 0.023879433
-0.016074609 0.031861175 0.023878206
-0.015549574 0.031856705 0.023876995
-0.015080379 0.031852711 0.023875913
-0.014602907 0.031848647 0.023874812
-0.0140879 0.031844262 0.023873623
-0.01360541 0.031840153 0.02387251
-0.013283215 0.031837411 0.023871766
-0.012591755 0.031831525 0.023870172
-0.012074752 0.031827122 0.02386898
-0.01159674 0.031823054 0.023867877
-0.011108979 0.0318189 0.023866752
-0.01060335 0.031814594 0.023865584
-0.010076047 0.031810105 0.023864368
-0.0095843598 0.031805921 0.023863234
-0.0090485774 0.031801358 0.023861999
-0.008554671 0.031797152 0.023860859
-0.0081085777 0.031793356 0.023859831
-0.007571857 0.031788785 0.023858592
-0.0070762369 0.031784568 0.023857448
-0.0065430715 0.031780027 0.023856219
-0.0060651847 0.031775959 0.023855116
-0.0056038038 0.031772032 0.023854053
-0.0050836173 0.031767603 0.023852851
-0.0045952662 0.031763446 0.023851726
-0.0040663537 0.031758942 0.023850506
-0.0035776738 0.031754781 0.023849377
-0.0031912909 0.031751491 0.023848487
-0.0025677513 0.031746183 0.023847049
-0.002091221 0.031742126 0.02384595
-0.0015974235 0.031737924 0.02384481
-0.0010523057 0.031733282 0.023843553
-0.00058225985 0.031729281 0.023842469
-7.9319463e-05 0.031724997 0.023841308
0.00043266296 0.031720638 0.023840128
0.00092847075 0.031716418 0.023838984
0.0013521463 0.031712811 0.023838006
0.0018943946 0.031708196 0.023836756
0.0023717918 0.031704132 0.023835653
0.0029009362 0.031699624 0.023834433
0.0034445561 0.031694997 0.02383318
0.0038209208 0.031691793 0.023832312
0.0043720268 0.031687103 0.02383104
0.0049145711 0.031682484 0.023829788
0.0053178803 0.031679049 0.023828859
0.0058714389 0.031674337 0.023827581
0.0063839806 0.031669974 0.023826398
0.0069164746 0.031665441 0.02382517
0.0074070576 0.031661261 0.023824038
0.0078981081 0.031657081 0.023822905
0.0083727967 0.031653039 0.02382181
0.0089137368 0.031648435 0.023820564
0.0094011053 0.031644285 0.023819439
0.009890426 0.03164012 0.02381831
0.010457249 0.031635296 0.023817003
0.010970114 0.03163093 0.02381582
0.011418981 0.031627107 0.023814784
0.01187531 0.031623222 0.023813732
0.012393107 0.031618815 0.023812538
0.01283841 0.031615023 0.02381151
0.013341396 0.031610738 0.023810349
0.013905209 0.03160594 0.023809049
0.014438068 0.031601403 0.02380782
0.014923708 0.031597268 0.0238067
0.015383915 0.031593353 0.023805639
0.015927745 0.031588722 0.023804383
0.016388709 0.031584796 0.02380332
0.016914032 0.031580325 0.023802109
0.017407887 0.031576119 0.023800969
0.017917138 0.031571783 0.023799794
0.018430015 0.031567417 0.023798611
0.018934786 0.031563122 0.023797447
0.019379681 0.031559333 0.023796421
0.019892352 0.031554967 0.023795238
0.020412853 0.031550538 0.023794038
0.020935141 0.03154609 0.023792833
0.021414183 0.031542011 0.023791727
0.021889364 0.031537965 0.023790631
0.022338727 0.031534139 0.023789594
0.022937097 0.031529047 0.023788214
0.023384804 0.031525236 0.023787182
0.024345405 0.031517059 0.023784965
-0.022808876 -0.031445928 0.0016397666
-0.022829285 -0.031449668 0.0022665029
-0.022881186 -0.031459179 0.0038602641
-0.0228942 -0.031461563 0.0042599356
-0.02290781 -0.031464059 0.004677888
-0.023008622 -0.031482529 0.007773682
-0.023024466 -0.031485435 0.0082601691
-0.023038441 -0.031487994 0.008689383
-0.023039717 -0.031488229 0.0087285507
-0.023049325 -0.031489987 0.0090235434
-0.023056325 -0.031491272 0.0092385001
-0.02306965 -0.031493712 0.0096477494
-0.023073772 -0.031494468 0.0097742807
-0.023090564 -0.031497546 0.010289948
-0.023107294 -0.031500611 0.010803731
-0.023105564 -0.031500295 0.010750562
-0.02311969 -0.031502884 0.011184374
-0.023122719 -0.031503439 0.011277396
-0.023137653 -0.031506173 0.011735999
-0.02325473 -0.031527627 0.015331256
-0.023270143 -0.031530451 0.015804572
-0.023292737 -0.03153459 0.016498417
-0.023286467 -0.031533442 0.016305888
-0.023297779 -0.031535514 0.016653255
-0.0233007 -0.03153605 0.016742934
-0.023353815 -0.031545784 0.018374005
-0.023367532 -0.031548295 0.01879522
-0.02338377 -0.031551272 0.019293869
-0.023398571 -0.031553984 0.019748416
-0.023400525 -0.031554341 0.019808367
-0.023414837 -0.031556964 0.020247929
-0.023413027 -0.031556632 0.020192325
-0.023430876 -0.031559903 0.020740433
-0.023447717 -0.031562988 0.021257589
-0.023464523 -0.031566069 0.021773724
-0.023480741 -0.031569041 0.022271752
-0.023479419 -0.031568799 0.022231121
-0.023497839 -0.031572174 0.022796763
-0.023499487 -0.031572476 0.022847358
-0.023513751 -0.031575091 0.023285419
-0.023512209 -0.031574808 0.023238037
-0.023190411 0.031057747 0.0024067843
-0.023204137 0.031059245 0.0028275419
-0.02320564 0.031059409 0.0028736563
-0.02322243 0.03106124 0.0033884104
-0.023287574 0.031068346 0.0053855432
-0.023287315 0.031068318 0.0053776149
-0.023303788 0.031070115 0.0058826413
-0.023320366 0.031071924 0.006390864
-0.023337845 0.031073829 0.00692668
-0.023353271 0.031075513 0.0073996196
-0.023368472 0.031077171 0.0078656394
-0.023369346 0.031077266 0.0078924447
-0.023384027 0.031078868 0.0083425101
-0.023400966 0.031080715 0.0088618491
-0.023417089 0.031082474 0.0093560982
-0.023435744 0.03108451 0.0099280197
-0.023445526 0.031085577 0.0102279
-0.023449661 0.031086028 0.010354672
-0.023465779 0.031087786 0.010848794
-0.023483315 0.031089699 0.011386417
-0.02350045 0.031091567 0.011911753
-0.023532737 0.031095089 0.012901588
-0.023534698 0.031095304 0.012961728
-0.023549071 0.031096872 0.013402325
-0.023566285 0.031098749 0.013930089
-0.023581568 0.031100417 0.014398617
-0.023596857 0.031102084 0.014867318
-0.023610149 0.031103535 0.015274801
-0.023609776 0.031103494 0.01526341
-0.023630816 0.031105788 0.015908407
-0.023626208 0.031105286 0.01576714
-0.023664249 0.031109435 0.016933396
-0.023678128 0.03111095 0.017358854
-0.023694715 0.031112758 0.01786736
-0.023711406 0.03111458 0.018379094
-0.023728855 0.031116484 0.018914044
-0.023742013 0.031117918 0.019317424
-0.02376074 0.031119961 0.019891508
-0.023777146 0.031121751 0.020394482
-0.02378978 0.03112313 0.020781834
-0.023808008 0.031125117 0.021340633
-0.023825929 0.031127073 0.021890026
-0.023860252 0.031130817 0.022942264
-0.023874354 0.031132355 0.023374625
-0.023889873 0.031134048 0.023850393
-0.023885313 0.031133551 0.023710627
0.023635479 -0.03155889 0.0023083966
0.02363761 -0.03156203 0.0026945835
0.0236517 -0.031582803 0.0052484386
0.023654362 -0.031586725 0.0057311561
0.023656348 -0.031589653 0.0060908683
0.023659609 -0.031594463 0.0066822879
0.023667838 -0.031606592 0.0081738457
0.023668181 -0.031607099 0.008235788
0.023670547 -0.031610586 0.0086646909
0.023670359 -0.03161031 0.0086306753
0.023673123 -0.031614382 0.0091314623
0.023673033 -0.031614251 0.0091154985
0.023676196 -0.031618915 0.0096887648
0.023678601 -0.031622458 0.010124668
0.023678537 -0.031622365 0.010113087
0.023681968 -0.031627424 0.010735
0.023712713 -0.031672746 0.016307607
0.023714751 -0.031675752 0.016676966
0.023714753 -0.031675756 0.016677562
0.023715358 -0.031676646 0.016787052
0.023717409 -0.031679671 0.017158912
0.023717454 -0.031679735 0.017166913
0.023716865 -0.03167887 0.017060349
0.023719637 -0.031682953 0.017562639
0.023728328 -0.031695768 0.019138142
0.023728304 -0.031695731 0.019133611
0.02372808 -0.031695399 0.019092945
0.023731286 -0.031700127 0.019674165
0.023730677 -0.031699229 0.01956388
0.023733949 -0.031704053 0.020156942
0.023734003 -0.031704135 0.020166744
0.023733547 -0.031703461 0.020084128
0.023737449 -0.031709213 0.020791326
0.023741463 -0.031715132 0.021518987
0.023744721 -0.031719934 0.022109566
-0.023467259 -0.031477477 0.0013152305
-0.023468064 -0.03147826 0.0014116792
-0.023471406 -0.031481512 0.0018127225
-0.02347086 -0.031480983 0.0017472953
-0.023475345 -0.031485349 0.0022855559
-0.023480378 -0.031490251 0.0028897566
-0.023483677 -0.031493459 0.0032855021
-0.023487996 -0.031497665 0.0038040476
-0.023491703 -0.031501275 0.0042488948
-0.023492314 -0.031501867 0.0043221363
-0.023495849 -0.031505313 0.0047466103
-0.023499757 -0.031509116 0.0052155731
-0.02350069 -0.031510025 0.0053274697
-0.023504319 -0.031513557 0.0057629202
-0.023508346 -0.031517476 0.0062463768
-0.023512559 -0.031521577 0.0067519415
-0.02351677 -0.031525679 0.0072575016
-0.023520831 -0.031529631 0.0077448981
-0.023524625 -0.031533327 0.0082002161
-0.023592936 -0.031599831 0.016398851
-0.023596276 -0.031603079 0.01679964
-0.023595123 -0.031601958 0.016661238
-0.023609303 -0.031615764 0.018363265
-0.023612961 -0.031619325 0.01880233
-0.02361726 -0.031623509 0.019318242
-0.023621183 -0.031627331 0.019789074
-0.023624161 -0.031630229 0.02014653
-0.023629112 -0.03163505 0.020740803
-0.023633789 -0.031639602 0.021302033
-0.023637885 -0.031643588 0.021793634
-0.023641076 -0.031646695 0.022176526
-0.022808876 -0.031445928 0.0016397666
-0.022829285 -0.031449668 0.0022665029
-0.022881186 -0.031459179 0.0038602641
-0.0228942 -0.031461563 0.0042599356
-0.02290781 -0.031464059 0.004677888
-0.023008622 -0.031482529 0.007773682
-0.023024466 -0.031485435 0.0082601691
-0.023038441 -0.031487994 0.008689383
-0.023039717 -0.031488229 0.0087285507
-0.023049325 -0.031489987 0.0090235434
-0.023056325 -0.031491272 0.0092385001
-0.02306965 -0.031493712 0.0096477494
-0.023073772 -0.031494468 0.0097742807
-0.023090564 -0.031497546 0.010289948
-0.023107294 -0.031500611 0.010803731
-0.023105564 -0.031500295 0.010750562
-0.02311969 -0.031502884 0.011184374
-0.023122719 -0.031503439 0.011277396
-0.023137653 -0.031506173 0.011735999
-0.02325473 -0.031527627 0.015331256
-0.023270143 -0.031530451 0.015804572
-0.023292737 -0.03153459 0.016498417
-0.023286467 -0.031533442 0.016305888
-0.023297779 -0.031535514 0.016653255
-0.0233007 -0.03153605 0.016742934
-0.023353815 -0.031545784 0.018374005
-0.023367532 -0.031548295 0.01879522
-0.02338377 -0.031551272 0.019293869
-0.023398571 -0.031553984 0.019748416
-0.023400525 -0.031554341 0.019808367
-0.023414837 -0.031556964 0.020247929
-0.023413027 -0.031556632 0.020192325
-0.023430876 -0.031559903 0.020740433
-0.023447717 -0.031562988 0.021257589
-0.023464523 -0.031566069 0.021773724
-0.023480741 -0.031569041 0.022271752
-0.023479419 -0.031568799 0.022231121
-0.023497839 -0.031572174 0.022796763
-0.023499487 -0.031572476 0.022847358
-0.023513751 -0.031575091 0.023285419
-0.023512209 -0.031574808 0.023238037
-0.023531772 -0.031237202 0.023779143
-0.023533965 -0.030856408 0.023779795
-0.023536615 -0.030396201 0.023780584
-0.023539074 -0.02996962 0.023781314
-0.023541892 -0.029480165 0.023782153
-0.023546144 -0.028741818 0.023783417
-0.023548087 -0.028404562 0.023783995
-0.023550712 -0.027948925 0.023784773
-0.023553463 -0.027471486 0.023785591
-0.023556642 -0.026919343 0.023786537
-0.023559768 -0.026376816 0.023787467
-0.023562912 -0.025831038 0.023788402
-0.023566166 -0.025265887 0.023789369
-0.023568863 -0.024797719 0.023790171
-0.023571933 -0.024264894 0.023791082
-0.023574937 -0.023743249 0.023791976
-0.023576584 -0.02345744 0.023792466
-0.023580007 -0.022863016 0.023793483
-0.023582326 -0.022460286 0.023794172
-0.023585321 -0.021940431 0.023795063
-0.023588095 -0.021458812 0.023795888
-0.023591422 -0.02088136 0.023796877
-0.023593919 -0.020447658 0.02379762
-0.023596719 -0.019961791 0.023798451
-0.023600034 -0.019386135 0.023799438
-0.023602696 -0.018923866 0.02380023
-0.023605721 -0.01839878 0.023801127
-0.023608128 -0.017980861 0.023801845
-0.023611162 -0.017454362 0.023802746
-0.023614567 -0.016863223 0.023803758
-0.023616971 -0.016445592 0.023804473
-0.023620464 -0.015839357 0.02380551
-0.023622932 -0.015410737 0.023806244
-0.02362559 -0.014949373 0.023807036
-0.023628695 -0.014410132 0.023807958
-0.023631986 -0.013838998 0.023808936
-0.023634357 -0.013427221 0.023809642
-0.023637237 -0.012927307 0.023810498
-0.02363994 -0.012458059 0.023811301
-0.023642909 -0.011942702 0.023812184
-0.023645613 -0.011473007 0.023812989
-0.02364862 -0.01095113 0.023813881
-0.023651479 -0.010454681 0.023814732
-0.023654975 -0.009847777 0.023815772
-0.023658341 -0.0092634484 0.023816772
-0.02366068 -0.0088573508 0.023817467
-0.02366326 -0.0084092412 0.023818234
-0.023666093 -0.0079175113 0.023819076
-0.023668991 -0.0074142721 0.023819938
-0.02367172 -0.006940641 0.023820749
-0.02367584 -0.0062254174 0.023821974
-0.023678271 -0.0058032875 0.023822697
-0.02368034 -0.0054441788 0.023823312
-0.023688631 -0.0040046033 0.023825778
-0.023689898 -0.0037848111 0.023826154
-0.0236919 -0.0034371333 0.023826748
-0.023694592 -0.0029699763 0.023827549
-0.023697548 -0.0024568096 0.023828428
-0.023700304 -0.0019779601 0.023829248
-0.023703389 -0.0014426027 0.023830164
-0.023706431 -0.00091460382 0.023831068
-0.023709277 -0.00042025268 0.023831915
-0.02371276 0.00018435594 0.023832951
-0.023715852 0.00072105043 0.023833869
-0.023717895 0.0010758337 0.023834476
-0.023720704 0.0015636513 0.023835313
-0.023723781 0.0020977415 0.023836227
-0.023726489 0.0025678026 0.023837032
-0.023729328 0.0030606329 0.023837876
-0.023732573 0.0036240988 0.02383884
-0.023735749 0.0041755335 0.023839785
-0.023738185 0.0045985435 0.023840509
-0.023740925 0.0050742072 0.023841323
-0.023743948 0.0055990354 0.023842223
-0.023747388 0.0061961203 0.023843246
-0.023750542 0.0067436164 0.023844182
-0.023752643 0.0071083014 0.023844806
-0.023755174 0.0075477837 0.023845559
-0.023757862 0.0080146072 0.023846358
-0.023760928 0.0085468143 0.023847271
-0.023764033 0.0090859896 0.023848193
-0.023767032 0.0096065979 0.023849085
-0.023769712 0.010071823 0.023849882
-0.023772556 0.010565675 0.023850728
-0.023775566 0.011088234 0.023851622
-0.023778342 0.011569984 0.023852447
-0.023781201 0.012066483 0.023853298
-0.023784244 0.012594978 0.023854202
-0.023786841 0.013045619 0.023854975
-0.023790913 0.013752511 0.023856185
-0.023793206 0.014150484 0.023856865
-0.023796311 0.014689712 0.023857789
-0.023798669 0.015099056 0.023858489
-0.023801342 0.015563241 0.023859285
-0.023803964 0.016018556 0.023860065
-0.023806985 0.016543087 0.023860963
-0.023810411 0.017137647 0.023861982
-0.023812845 0.01756034 0.023862705
-0.023815639 0.018045269 0.023863535
-0.023818595 0.018558625 0.023864415
-0.023822391 0.019217659 0.023865543
-0.023824181 0.019528264 0.023866074
-0.023827912 0.0201759 0.023867184
-0.023830194 0.020572182 0.023867862
-0.023833903 0.021215878 0.023868965
-0.023835914 0.021565378 0.023869563
-0.023838554 0.022023633 0.023870349
-0.0238414 0.02251759 0.023871195
-0.023844594 0.02307206 0.023872143
-0.023847168 0.023519002 0.023872908
-0.023850249 0.024053859 0.023873825
-0.023853233 0.024572123 0.023874713
-0.023856083 0.025066646 0.023875559
-0.02385895 0.025564475 0.023876412
-0.023861755 0.02605138 0.023877244
-0.0238647 0.026562801 0.023878122
-0.023867857 0.027110966 0.023879061
-0.023870401 0.027552534 0.023879817
-0.023873424 0.028077392 0.023880715
-0.023876324 0.028581057 0.023881577
-0.023878975 0.029041147 0.023882365
-0.023882098 0.029583219 0.023883292
-0.023884756 0.030044707 0.023884084
-0.02388886 0.030757314 0.023885304
-0.023892287 0.031352106 0.023886323
-0.023652468 -0.010282895 0.023815027
-0.023664944 -0.0081169894 0.023818735
-0.023888336 0.030666288 0.023885148
