# .PCD v0.7 - Point Cloud Data file format
VERSION 0.7
FIELDS x y z
SIZE 4 4 4
TYPE F F F
COUNT 1 1 1
WIDTH 1153
HEIGHT 1
VIEWPOINT 0 0 0 1 0 0 0
POINTS 1153
DATA ascii
-0.0044126948 -0.0032755616 -0.00018268061
-0.0048850407 -0.0032612716 -0.00016684656
-0.0054687401 -0.0032690461 -0.00014848649
-0.0059422865 -0.0033068077 -0.00015114347
-0.0064442838 -0.0032856204 -0.00014615362
-0.0069246027 -0.0033080145 -0.00015721924
-0.0074570021 -0.0032951022 -0.00013095315
-0.0079428358 -0.0032645308 -0.00015117292
-0.0084593175 -0.0032794997 -0.00014515762
-0.0089189252 -0.0032934279 -0.00015103427
-0.0093656257 -0.0032159986 -0.00019319204
-0.0098925 -0.0033071062 -0.00016387168
-0.010418722 -0.0032752897 -0.00018602138
-0.010929944 -0.0033099256 -0.00017966377
-0.011449821 -0.0032616293 -0.0002031601
-0.011953992 -0.0032839729 -0.00024848862
-0.012486903 -0.0033072769 -0.00018322608
-0.01294724 -0.003327447 -0.00021885347
-0.013415978 -0.003349541 -0.00020170375
-0.013891275 -0.0033276048 -0.00018483796
-0.014429835 -0.0033207571 -0.00019310485
-0.014926836 -0.0033598442 -0.00020734267
-0.015447317 -0.0033486725 -0.00022286805
-0.015932983 -0.0033144904 -0.00021869829
-0.016412122 -0.0033427477 -0.00023770658
-0.016919911 -0.0033597671 -0.00020665803
-0.017419044 -0.0033311963 -0.00019643106
-0.017892381 -0.0033377269 -0.00021191954
-0.018419316 -0.0033816025 -0.00019903888
-0.018902102 -0.0033349921 -0.00023471459
-0.019420488 -0.0033593837 -0.00023935933
-0.019901898 -0.0033760471 -0.00019463943
-0.020433148 -0.0033738797 -0.00016783259
-0.020916831 -0.0033610379 -0.00017933128
-0.021432258 -0.0033913786 -0.00010163989
-0.021930091 -0.0033938852 -0.00015439698
-0.022449667 -0.0033681355 -0.00016202917
-0.02293681 -0.0033500264 -8.2959421e-05
-0.023342557 -0.0034052841 -3.7157442e-06
0.023942336 -0.0027266063 -0.0001562275
0.023507049 -0.0025751158 -0.00016977987
0.023042338 -0.0025793242 -0.00016042101
0.022517065 -0.0025958042 -0.00020148954
0.022054616 -0.002651535 -0.00017706351
0.021541847 -0.0025960619 -0.00018304272
0.021071913 -0.0025829053 -0.00018515834
0.02052065 -0.002605808 -0.00020790228
0.020059658 -0.0025834627 -0.00019388145
0.019580483 -0.0026446772 -0.0001854978
0.019109577 -0.0026274566 -0.00019622699
0.018541075 -0.0026238528 -0.0001973802
0.018090114 -0.0026629241 -0.00020770577
0.017559774 -0.0025707502 -0.00018216483
0.017072003 -0.0026189848 -0.00017896097
0.016564144 -0.0025838674 -0.00017645652
0.016065754 -0.0026330864 -0.00015429582
0.015593352 -0.0026070643 -0.00018571969
0.015108755 -0.0026660017 -0.00016342313
0.014607131 -0.0026713172 -0.00016828428
0.01410105 -0.0026442343 -0.00015500851
0.013585204 -0.0026390543 -0.00017373101
0.013055226 -0.0026111323 -0.00018292328
0.012561737 -0.0026352499 -0.00020891114
0.012057962 -0.002614958 -0.00017889857
0.011554082 -0.0026742802 -0.00017796655
0.011125025 -0.0026415829 -0.00017968821
0.010571431 -0.0026879937 -0.00015335809
0.010085647 -0.0027238289 -0.00018205668
0.0095879221 -0.0027119338 -0.0001666802
0.0090886876 -0.0026904372 -0.00014746131
0.0085565057 -0.0026897998 -0.00010728772
0.0079854345 -0.0026755708 -7.559912e-05
0.007574412 -0.0026237292 -0.00010403257
0.0070675486 -0.002715898 -0.0001068936
0.0065577696 -0.002691926 -0.00012222514
0.0060503073 -0.0027307023 -0.00014209608
0.0055903448 -0.0026805645 -0.00015910069
0.0051024677 -0.0026679896 -0.00014331547
0.0045250487 -0.0026900209 -0.00017444245
0.0040228865 -0.002692295 -0.00015560241
0.0035372251 -0.0026837003 -0.0001656197
0.0030459857 -0.0026869196 -0.0001835833
0.0025477635 -0.0026969963 -0.00014398091
0.0020510904 -0.0026899776 -0.00013471117
0.0015219599 -0.0027075231 -0.00015462689
0.0010634965 -0.0027443026 -0.00015704078
0.00059173367 -0.0027177653 -0.00014215343
8.8643515e-05 -0.0027345393 -0.00013721274
-0.00042558945 -0.0027165802 -0.00015526355
-0.00090930512 -0.0027261344 -0.00013744741
-0.0014419095 -0.0027117217 -0.00013163763
-0.0019099549 -0.0027684292 -0.00015122286
-0.0024221903 -0.0027416914 -0.00015612111
-0.0029039085 -0.0028129045 -0.00015961088
-0.0034064031 -0.0028118754 -0.00015449358
-0.0038935151 -0.00273969 -0.00014595781
-0.0043973364 -0.0028317827 -0.00014756719
-0.0049183308 -0.0027780153 -0.00016844709
-0.0054370896 -0.0027170014 -0.00013975371
-0.0059526493 -0.0028002276 -0.00014113967
-0.006432584 -0.0027772833 -0.0001516224
-0.0069245463 -0.0027910108 -0.00016673905
-0.0074258442 -0.0027524047 -0.00015160802
-0.0079546506 -0.0027624187 -0.00015460665
-0.0084373318 -0.002773501 -0.00011812808
-0.0089522991 -0.0027766693 -0.00016616698
-0.0094717983 -0.002787689 -0.00018848933
-0.0099098217 -0.0027891141 -0.00021235005
-0.010423248 -0.0027853891 -0.00019233552
-0.010933479 -0.0028103786 -0.00020052912
-0.011432568 -0.0027672153 -0.00021812494
-0.011928151 -0.0028101592 -0.00018394052
-0.012443321 -0.0028240373 -0.00020137825
-0.012902368 -0.0027856564 -0.00020444952
-0.013438676 -0.0028659878 -0.00022160076
-0.013893114 -0.0028139779 -0.00020671007
-0.014419051 -0.0028373688 -0.00021060125
-0.014901797 -0.0028497942 -0.00016198412
-0.015470449 -0.0028595643 -0.00017505628
-0.015941238 -0.0028196257 -0.00018570072
-0.016470427 -0.0028515784 -0.00018050137
-0.016941477 -0.0028585796 -0.00018835114
-0.017424487 -0.0028462077 -0.00021247007
-0.017926428 -0.0028507588 -0.00021666056
-0.018425694 -0.0028430698 -0.00021566043
-0.018896755 -0.0028889447 -0.00019923656
-0.019463109 -0.0028452277 -0.00020434952
-0.019937426 -0.0028324099 -0.00019231974
-0.02042534 -0.0028841705 -0.00014740205
-0.020875424 -0.0028515961 -0.00014715549
-0.021442611 -0.0028697781 -0.00017407699
-0.021920927 -0.0028853226 -0.00017243833
-0.022452042 -0.0028548348 -0.00012666173
-0.02295791 -0.0029166644 -0.00010006665
-0.023349764 -0.002901745 -2.8121518e-05
0.023914276 -0.002172187 -0.00017934199
0.023546135 -0.0021062917 -0.00027025724
0.023043104 -0.002097548 -0.00026087812
0.022546563 -0.0021169158 -0.00019321032
0.022057787 -0.0021069148 -0.000193696
0.021619681 -0.0020993024 -0.00017633289
0.021112455 -0.0020746053 -0.00018459838
0.020572759 -0.0020753732 -0.00018129009
0.02006712 -0.0021208012 -0.00017778855
0.019541461 -0.0021437346 -0.0001857531
0.019025711 -0.0021604281 -0.00018290675
0.018552234 -0.002099961 -0.00018055411
0.018029394 -0.0021838085 -0.00019269506
0.017544081 -0.0021102105 -0.00018826709
0.017070036 -0.0020696314 -0.00018279278
0.016545923 -0.0021049827 -0.00017592602
0.016070308 -0.0021491735 -0.00018181698
0.015515193 -0.0021327834 -0.00017831847
0.01504648 -0.0021556886 -0.00017670926
0.014543499 -0.0021638423 -0.00017474173
0.014071234 -0.0021513377 -0.00017870928
0.013528548 -0.0021584549 -0.0001505937
0.013003397 -0.002103165 -0.0001560431
0.012524433 -0.0021302085 -0.00017021049
0.012038611 -0.002152147 -0.00017338607
0.011566613 -0.0021692186 -0.00017813011
0.011054208 -0.0021746773 -0.00016030192
0.010579664 -0.0022129684 -0.00016956299
0.010091899 -0.0021962558 -0.00015490706
0.0095688729 -0.0021945192 -0.00015867216
0.0090662679 -0.0022065206 -0.00015053886
0.0085633984 -0.0022058957 -0.00013039372
0.0080953659 -0.0022032172 -0.00012541615
0.0075360662 -0.0021347101 -9.3431619e-05
0.0070684873 -0.0021927755 -0.00011424941
0.0065772347 -0.0022036103 -0.00012454245
0.006065222 -0.0022211946 -0.00013765867
0.0055671935 -0.0021958374 -0.00013746391
0.0050466605 -0.0021844446 -0.0001706726
0.0045661614 -0.0022060438 -0.00015137551
0.0041013937 -0.0022074371 -0.0001940692
0.0035870115 -0.0021874709 -0.00017286958
0.0030912538 -0.0021802902 -0.00016346648
0.0025983967 -0.0022288717 -0.00016331655
0.0020866215 -0.0022301495 -0.00017412881
0.001552837 -0.002226233 -0.00013186672
0.0010498257 -0.0022200632 -0.00014681416
0.00054354122 -0.0022371088 -0.00015043077
6.6525652e-05 -0.0022375034 -0.00014979005
-0.00041667925 -0.0022559115 -0.00012903154
-0.00098293356 -0.0022457519 -0.00013746998
-0.0014293785 -0.0022357926 -0.00014303219
-0.001934113 -0.0022537971 -0.00012023249
-0.0024796687 -0.0022825743 -0.00012315193
-0.0029843312 -0.002298712 -0.00013979712
-0.0034371715 -0.0023176954 -0.00013366173
-0.0039401827 -0.0022210164 -0.0001284249
-0.0044597839 -0.0023206298 -0.00014521883
-0.0049426816 -0.0023128281 -0.00014884348
-0.0054635308 -0.0022271888 -0.0001417656
-0.0059303776 -0.0022918433 -0.0001324669
-0.006445359 -0.0022970375 -0.00012491376
-0.0069588381 -0.0022763209 -0.00016743725
-0.0074526221 -0.0022492639 -0.00016168447
-0.0079495898 -0.0022686664 -0.00012684695
-0.0084748147 -0.0023084919 -0.00015169563
-0.0089478279 -0.0022707481 -0.00018971163
-0.0094433213 -0.0023228109 -0.00017454749
-0.0099721756 -0.0022414294 -0.00018773181
-0.010433006 -0.0022838954 -0.00019703672
-0.010889805 -0.002310537 -0.00018530223
-0.01145881 -0.0022822004 -0.00015264109
-0.011949986 -0.0023074823 -0.00016247027
-0.012457285 -0.0023247099 -0.0002012687
-0.012953479 -0.002305249 -0.00021266239
-0.01341332 -0.002357583 -0.00020957587
-0.013943074 -0.0023159445 -0.0001876906
-0.014454049 -0.0023423219 -0.00012588524
-0.014917961 -0.0023453361 -0.00014494627
-0.01540518 -0.0023458651 -0.00013918674
-0.015937226 -0.0023471357 -0.00018093432
-0.016436411 -0.0023610012 -0.00019468705
-0.016919171 -0.0023583043 -0.00022337085
-0.01743542 -0.0023882212 -0.00023045368
-0.01789432 -0.0023465096 -0.00020326895
-0.018416775 -0.0023504421 -0.00020200748
-0.018897483 -0.0023811883 -0.00019190577
-0.019433005 -0.002351308 -0.00021801167
-0.019912083 -0.0023797341 -0.00018188939
-0.020427115 -0.0023941619 -0.00019187608
-0.020957571 -0.0023755305 -0.00016904366
-0.021447476 -0.0023976008 -0.00018258695
-0.021922274 -0.0023523234 -0.00017453893
-0.022408752 -0.002373952 -0.00013703923
-0.022928914 -0.0023687934 -7.6470198e-05
-0.023380945 -0.0023828452 1.5106751e-05
-0.023695013 -0.0021847649 5.0660688e-05
0.02340517 -0.001720042 -0.00037261785
0.023007898 -0.0016135719 -0.00036823226
0.022522639 -0.001631882 -0.00023830961
0.02203053 -0.0015741312 -0.00017353171
0.021565277 -0.0016165086 -0.00018138625
0.02110021 -0.0015721313 -0.00018045725
0.0206022 -0.0015990027 -0.00018088834
0.020066412 -0.0016243644 -0.00016177946
0.019559983 -0.0016152189 -0.00017385348
0.019059328 -0.001599891 -0.00019702048
0.018529488 -0.0015849182 -0.00019073219
0.018059716 -0.0016384561 -0.00019856857
0.017565804 -0.001607817 -0.00016995403
0.017072495 -0.0016061536 -0.00018084841
0.016557114 -0.0015880428 -0.00017024134
0.01604202 -0.0015995002 -0.00017570157
0.015531948 -0.0016067037 -0.00015351165
0.015022566 -0.0016289632 -0.00019763794
0.014597771 -0.0016455324 -0.00019976357
0.014053552 -0.0016509437 -0.00016118656
0.013531577 -0.0016359341 -0.00016691082
0.013075173 -0.0016617333 -0.00017324463
0.01256372 -0.0016472172 -0.0001671022
0.012088981 -0.0016507121 -0.00016995007
0.01158261 -0.0016459685 -0.00015312654
0.011090319 -0.0016448329 -0.00016120489
0.010590636 -0.0017313849 -0.00014462485
0.01008744 -0.0017051937 -0.00014203775
0.0095334947 -0.0016732172 -0.00014557864
0.0090543022 -0.0016908097 -0.0001586391
0.0085736541 -0.0017197869 -0.00013147981
0.0080699995 -0.0016436498 -0.0001057192
0.0075612073 -0.0016583782 -0.00010237005
0.0071458593 -0.0017022911 -0.00013439666
0.0065263426 -0.001690133 -0.00013395387
0.0060828496 -0.0017065814 -0.00012880901
0.0056075146 -0.0017006787 -0.00011972673
0.0050769364 -0.0017085926 -0.00015437629
0.0045758341 -0.0017030258 -0.00016731501
0.0040577031 -0.0017010006 -0.000173254
0.0035280131 -0.001728534 -0.00015170945
0.003030418 -0.0016739345 -0.00014899872
0.0025835636 -0.0016980513 -0.00014299763
0.0021132133 -0.0017378612 -0.00015070415
0.0015004687 -0.0017028408 -0.00013755515
0.001009532 -0.0017195807 -0.00015226431
0.00056498457 -0.0017155106 -0.00018759299
7.7389297e-05 -0.0017718126 -0.000151086
-0.0004399048 -0.0017474213 -0.0001500397
-0.0009105347 -0.0017127935 -0.00014971862
-0.0014304533 -0.0017365514 -0.00014080224
-0.0019188691 -0.0017719322 -0.0001368388
-0.002421408 -0.0017173197 -0.00011541844
-0.0029125062 -0.001791399 -0.00012005732
-0.0034562591 -0.0017688883 -0.00013823595
-0.0039545633 -0.0017593908 -0.00012554755
-0.0044460054 -0.0017863195 -0.00014743063
-0.0049570152 -0.0017450897 -0.00014120631
-0.0054474929 -0.0017421324 -0.00013463569
-0.0059322491 -0.001770728 -0.00019997364
-0.0064747022 -0.0017524344 -0.00012402795
-0.006925839 -0.0017846508 -0.00011977769
-0.0074380962 -0.0017455363 -0.00014047074
-0.0079305442 -0.0017763816 -0.0001255931
-0.0084471488 -0.0018006471 -0.00012435659
-0.008970093 -0.0017525428 -0.00015492388
-0.0094446167 -0.0018114803 -0.00019022072
-0.0099011678 -0.0017740924 -0.00017305993
-0.010461218 -0.0017814684 -0.00019347074
-0.010961491 -0.0018089968 -0.00016312266
-0.011444759 -0.0017948097 -0.0002015417
-0.011962008 -0.0018041646 -0.00018805126
-0.012474956 -0.0017974867 -0.00019805483
-0.012934757 -0.0017869161 -0.00018644903
-0.013460102 -0.0018478206 -0.00017762231
-0.013958721 -0.0018211624 -0.00021562388
-0.014408189 -0.0018066524 -0.00017732871
-0.014915412 -0.0018537953 -0.00011435139
-0.015403381 -0.0018286367 -0.00021482748
-0.015914263 -0.0018273524 -0.00021105958
-0.016446015 -0.0018229579 -0.00018545706
-0.01691247 -0.0018585839 -0.00021267112
-0.017485391 -0.0018532199 -0.00022882898
-0.017975755 -0.001843413 -0.00020794326
-0.018430008 -0.0018728352 -0.00022115093
-0.018923067 -0.0018334378 -0.00015803962
-0.019412175 -0.0018658618 -0.00020052516
-0.01990062 -0.0018878077 -0.00020439061
-0.020439832 -0.0018653725 -0.00020385406
-0.020900456 -0.0018789324 -0.00015869318
-0.021462621 -0.0018641192 -0.00019016094
-0.021958962 -0.0018720492 -0.00020493055
-0.022427188 -0.0018934689 -0.0001577083
-0.022892909 -0.0019148537 -3.0699652e-05
-0.023342602 -0.0018525753 5.4541975e-05
0.022883955 -0.00091394095 -5.4466072e-05
0.022526594 -0.0010820454 -0.00029387104
0.022076489 -0.001076187 -0.0001896061
0.021575844 -0.0011004098 -0.00021919876
0.021078069 -0.0010785062 -0.00022010657
0.020549523 -0.0011369984 -0.00017182215
0.02006164 -0.0011045475 -0.0001958966
0.019588377 -0.0011354837 -0.00017902383
0.019110395 -0.0010908734 -0.00019039994
0.018565176 -0.0010983547 -0.00020411401
0.018088831 -0.001098757 -0.00017518678
0.0175993 -0.0011325078 -0.00019231427
0.017091438 -0.0011011558 -0.00018835382
0.016567141 -0.0010959221 -0.00017887831
0.016070535 -0.001125869 -0.00017962453
0.015544866 -0.0011433166 -0.00018125691
0.015050736 -0.001119636 -0.00018735672
0.014538939 -0.0011762443 -0.00017880497
0.014061234 -0.0011060727 -0.00019932992
0.013590407 -0.0011521121 -0.0001967462
0.013082027 -0.0011574978 -0.00018067239
0.01254388 -0.0011727449 -0.00018971867
0.012058888 -0.0011569348 -0.00017681753
0.011550175 -0.0011810116 -0.00018905662
0.011070812 -0.0011452567 -0.00015411596
0.010552449 -0.0012145992 -0.00011727813
0.010030038 -0.0011775305 -0.00015328743
0.0095020905 -0.0011821454 -0.00012225378
0.0090407776 -0.0011997031 -0.00013324083
0.0085508786 -0.0012296675 -0.00014494505
0.0080524068 -0.0011591837 -0.0001563027
0.007545264 -0.0011961148 -0.00012893014
0.0070647099 -0.0012455997 -0.00010736397
0.0065797237 -0.00119024 -0.0001247988
0.0060467818 -0.0012203329 -0.00013414939
0.0055532525 -0.001172214 -0.00013066828
0.0050379462 -0.0011876842 -0.00012723674
0.0045060306 -0.0012179661 -0.00013194437
0.0040184357 -0.0011836004 -0.00014375855
0.0035355426 -0.0012364902 -0.00014445779
0.0030846235 -0.001202239 -0.0001581973
0.0025463463 -0.0012082784 -0.00015186564
0.0020566934 -0.001246802 -0.00016717067
0.0015986392 -0.0012011681 -0.00015759318
0.0010513102 -0.0012475461 -0.00015762543
0.00053979165 -0.0012496044 -0.00018351519
4.3690263e-05 -0.0012670573 -0.00017456045
-0.00046628062 -0.0012276169 -0.00014560258
-0.00095388287 -0.0012638232 -0.00015462903
-0.0014487437 -0.001273436 -0.00011642352
-0.0019526753 -0.0012543696 -0.00014151854
-0.0024312939 -0.0012383213 -0.00012686869
-0.002899528 -0.0012810612 -9.3241717e-05
-0.0034502202 -0.001245608 -0.00011512788
-0.0039377739 -0.0012950071 -0.00011754071
-0.0044514798 -0.0012843744 -0.00012552339
-0.0049355282 -0.001278715 -0.00014159351
-0.0054621664 -0.0012499639 -0.00015592173
-0.0059335814 -0.001289507 -0.00022631115
-0.0064596785 -0.0012631242 -0.00013841543
-0.0069659599 -0.0012920484 -0.00014103833
-0.007443571 -0.0012907666 -0.00013071741
-0.0079025058 -0.0012612561 -0.00014660344
-0.008435159 -0.0013281925 -0.00014004012
-0.0089146607 -0.0012737552 -0.00014846597
-0.009401476 -0.001307559 -0.00016388367
-0.0099334344 -0.0012819048 -0.00017790264
-0.010453236 -0.0012892876 -0.00019011809
-0.010935829 -0.0013256459 -0.00020422367
-0.011418869 -0.0013033052 -0.00018699677
-0.011921221 -0.0013277255 -0.00017485733
-0.012467214 -0.0013280096 -0.0001612606
-0.012984253 -0.001328378 -0.00020020071
-0.01342978 -0.0013873577 -0.00019291916
-0.013945265 -0.0013093259 -0.00018740818
-0.014439076 -0.0013116475 -0.00020079524
-0.014921511 -0.001374919 -0.0001910259
-0.015471033 -0.0012992106 -0.00017471728
-0.015907399 -0.0013437585 -0.00016826857
-0.016427625 -0.0013519224 -0.00020160421
-0.016937055 -0.001372966 -0.00022745901
-0.017443281 -0.0013913413 -0.00020658702
-0.017922709 -0.0013662595 -0.00020000141
-0.018448768 -0.0013752657 -0.00019531592
-0.018958323 -0.0013756215 -0.00023540296
-0.019465359 -0.001382103 -0.00020740193
-0.019938111 -0.001391836 -0.0002030473
-0.020414624 -0.0013526875 -0.00020181655
-0.020912791 -0.0013759816 -0.00017327094
-0.021477211 -0.0014108652 -0.000185346
-0.021966511 -0.0013831685 -0.0001725594
-0.022436997 -0.0014006284 -8.2305167e-05
-0.022894286 -0.0013779307 -1.2294622e-05
-0.023329856 -0.0013069088 4.088995e-05
-0.023770647 -0.0015411238 8.6479355e-05
0.023048837 -0.00056369556 -7.6279743e-05
0.022532426 -0.0005932647 -0.00023997785
0.022034526 -0.00056496286 -0.00027798966
0.021501904 -0.00058422948 -0.00026374822
0.021029608 -0.00059095689 -0.00027450395
0.020572931 -0.00062599755 -0.00026161666
0.020082939 -0.00060530077 -0.00020772184
0.019612206 -0.00060960348 -0.0002224613
0.019063165 -0.00062207947 -0.00019869581
0.018526729 -0.00062385807 -0.00019379496
0.018020423 -0.00061536429 -0.00020371506
0.017599694 -0.00063951313 -0.00017286162
0.017083192 -0.00060498214 -0.000206506
0.016559647 -0.00059359032 -0.00016656856
0.016060786 -0.00065646134 -0.00019720185
0.015546272 -0.0006277198 -0.00020549586
0.015059545 -0.00064723939 -0.00019161054
0.014544689 -0.00067715492 -0.00019099261
0.014054795 -0.00069849659 -0.00017388398
0.013593796 -0.00067088183 -0.0001830312
0.013059022 -0.00061709032 -0.00018527196
0.012517043 -0.0006655677 -0.00017289724
0.012028906 -0.000647293 -0.00018024456
0.011566918 -0.00071081269 -0.00020182237
0.011063992 -0.00067947526 -0.00017100776
0.010561105 -0.00071529066 -0.00011438236
0.010060345 -0.0006631107 -0.00014560809
0.0095114745 -0.00069901353 -0.00014262967
0.0090373829 -0.00072050118 -0.00012901973
0.0085100261 -0.00068375829 -0.00012556085
0.0080181127 -0.00064718199 -0.00012772571
0.0075218156 -0.00064485974 -0.00010844739
0.0070699505 -0.00069193577 -9.3745475e-05
0.006531545 -0.0006468785 -9.5311028e-05
0.0060415342 -0.00070481183 -0.0001265434
0.0055742478 -0.0007253323 -0.00013542958
0.005079235 -0.00069375441 -0.00013288358
0.004528326 -0.00066216709 -0.00014475218
0.0040574973 -0.00070895918 -0.00013856756
0.0035419557 -0.00068496959 -0.00013224332
0.0030486204 -0.00071499083 -0.00015617679
0.002524504 -0.00068804366 -0.00016233147
0.0020462275 -0.00068366056 -0.00014769992
0.0015956685 -0.00069120468 -0.00015054409
0.0010662818 -0.00073233753 -0.00017187571
0.00058214593 -0.00070131209 -0.00016806345
5.4729811e-05 -0.00075654016 -0.00013910377
-0.0005024788 -0.0007416305 -0.00014719956
-0.00094991934 -0.00075413648 -0.00011755669
-0.001459191 -0.00072125747 -9.9288831e-05
-0.0019224595 -0.00076976814 -0.00016747345
-0.002450618 -0.00070746709 -0.00012286499
-0.0029558935 -0.00073137513 -0.000119194
-0.0034244787 -0.00078599376 -0.00011179986
-0.0039488412 -0.00075421052 -0.00012615279
-0.0044832546 -0.00079281675 -0.00014909194
-0.0049390811 -0.00081280625 -0.00014492733
-0.0054512429 -0.00077930139 -0.00013937929
-0.005921369 -0.00074948347 -0.00014306424
-0.0064250329 -0.00077369669 -0.00011920353
-0.0069617461 -0.00075462717 -0.00013805809
-0.0074772588 -0.00079909555 -0.00012406509
-0.0079488643 -0.00076261314 -0.00011919666
-0.0084424168 -0.00077440456 -0.00012765947
-0.0089521594 -0.00081219408 -0.00016797282
-0.0094494 -0.00081776618 -0.00016111723
-0.0099455947 -0.00077069522 -0.0001598713
-0.010482254 -0.00080523069 -0.00016505946
-0.011004919 -0.00084719365 -0.00018222991
-0.01148046 -0.00080242992 -0.00016918546
-0.011949542 -0.00084606453 -0.00019754411
-0.012439827 -0.00079457229 -0.00017925841
-0.012915105 -0.00082889479 -0.00015966792
-0.013471733 -0.00089056022 -0.00018644345
-0.0139754 -0.00083172374 -0.00018719235
-0.014442487 -0.00083419157 -0.00016141869
-0.014950194 -0.00083408906 -0.00019764411
-0.015435202 -0.00082105055 -0.00018845568
-0.01594422 -0.00085132779 -0.00017877331
-0.016452702 -0.00083990721 -0.0001724544
-0.016891677 -0.00087033387 -0.00018667686
-0.017421721 -0.00085464574 -0.00019235176
-0.017947791 -0.00085091521 -0.00018945744
-0.018459164 -0.00084775244 -0.0001463067
-0.018949721 -0.00087128428 -0.0002510628
-0.01945724 -0.0008537682 -0.00018603541
-0.019956203 -0.00084760028 -0.00021736429
-0.020424102 -0.00084155716 -0.00015045749
-0.020912681 -0.00084232632 -0.0002042402
-0.021429351 -0.0008787408 -0.00018632086
-0.021940678 -0.00084948272 -0.00014833175
-0.02244387 -0.00085618347 -0.00010236539
-0.022937091 -0.0008841987 -1.4622463e-05
-0.023196913 -0.0011265625 4.8305374e-05
0.02341776 -3.1685573e-05 -9.0420945e-05
0.02307719 -7.5421878e-05 -0.00013044011
0.02253573 -0.00017888413 -0.00022195047
0.022042289 -0.00010475272 -0.00026423018
0.021548834 -9.6199103e-05 -0.00023731077
0.021076621 -0.00011464721 -0.00019527599
0.020548349 -0.00014474196 -0.00022229191
0.020059299 -0.00014850101 -0.00026544393
0.019543977 -0.00013189565 -0.0002356685
0.019087 -0.00011667307 -0.00023890322
0.01853241 -0.00014111353 -0.00020338001
0.018055305 -9.1203721e-05 -0.00017536862
0.01752172 -0.00012678839 -0.00018632505
0.017035056 -0.00011993374 -0.0001974653
0.016584523 -0.00013868604 -0.00022909138
0.016081344 -0.00014658819 -0.00020467862
0.01558842 -0.00013440801 -0.00023144344
0.015082799 -0.00013578602 -0.00020199362
0.014573039 -0.0001160563 -0.00021189766
0.01409054 -0.00017575437 -0.00021240336
0.013504984 -0.00012084708 -0.00017330807
0.013036075 -0.0001795647 -0.0001774152
0.01251753 -0.00019626785 -0.00017861801
0.012034414 -0.00016116881 -0.00018543191
0.011563224 -0.00021183578 -0.00018752145
0.011076667 -0.00016317639 -0.00014553219
0.010532396 -0.00019380887 -0.00012935384
0.010063157 -0.00012412493 -0.00012459781
0.009559053 -0.00017775345 -0.00014382548
0.0090587586 -0.0002159407 -0.00014508975
0.0085791927 -0.00019939517 -0.00013246288
0.0080767283 -0.00016877154 -0.00012337184
0.007579504 -0.00021049136 -0.00010689872
0.0070542996 -0.00020750222 -0.00011438591
0.0065552834 -0.00017709984 -0.00010669901
0.0060433159 -0.00019311102 -0.00013883726
0.0055690105 -0.00017651601 -0.00012307952
0.0050396794 -0.00019420084 -0.00013719074
0.0045101605 -0.0001735804 -0.00014471196
0.004030149 -0.00020346235 -0.00014758468
0.0035311007 -0.00017306569 -0.0001295621
0.0030806465 -0.00021128354 -0.00014395342
0.0025550206 -0.00019561998 -0.00013052538
0.0020651962 -0.00022931644 -0.00016857931
0.0015149135 -0.00022084966 -0.00015923793
0.0010577095 -0.00024577367 -0.00015830221
0.0005042539 -0.00023294293 -0.00015790595
5.2221294e-05 -0.00025645556 -0.00016475411
-0.00041377664 -0.00027447584 -0.00014187006
-0.00091825216 -0.00023596233 -0.0001164047
-0.001438438 -0.00029466534 -0.00013791124
-0.0019155588 -0.00028026529 -0.00011015854
-0.002466144 -0.00023649845 -0.00011959609
-0.0029460399 -0.00021968888 -0.00012454645
-0.0034013181 -0.00030236645 -0.00013120723
-0.0039196415 -0.00025365851 -0.00013977056
-0.0044744597 -0.00026404019 -0.00012700676
-0.0050135343 -0.00029593165 -0.00010936934
-0.0054437062 -0.00024481356 -0.0001346597
-0.0059446297 -0.00027554735 -0.00012419431
-0.0064815246 -0.00025804658 -0.00011896255
-0.0069643897 -0.00024476895 -0.00011105387
-0.0074808206 -0.00028191958 -0.0001264317
-0.0079737641 -0.00029755241 -0.00012742414
-0.0084554637 -0.000290945 -0.00015217991
-0.0089359526 -0.00029756059 -0.00014391233
-0.0094407899 -0.00031068223 -0.00019781286
-0.0099227866 -0.00030135794 -0.00018078269
-0.01043303 -0.00027687318 -0.00012949912
-0.010924434 -0.00035184814 -0.00014201517
-0.011433483 -0.00029915059 -0.00014498702
-0.011936798 -0.00036802032 -0.00014433847
-0.012441541 -0.00035553961 -0.00014234497
-0.012939781 -0.00030122855 -0.00013582839
-0.013449226 -0.00036286662 -0.00013076898
-0.013937665 -0.00035596977 -0.00011651998
-0.01447192 -0.00033628108 -0.00015379034
-0.014953437 -0.00035105512 -0.00016033847
-0.015494661 -0.00031084579 -0.00018305471
-0.015943823 -0.00039048085 -0.00018282596
-0.016458951 -0.00032006612 -0.00019006501
-0.016981443 -0.00038612518 -0.00019908056
-0.01744066 -0.00034355558 -0.00019213336
-0.017908532 -0.00038275623 -0.00019452767
-0.018448427 -0.00036933192 -0.00019487145
-0.018928984 -0.00034553814 -0.00019599218
-0.019423891 -0.00034148002 -0.00020604418
-0.019926954 -0.00036130985 -0.0002003198
-0.020461587 -0.00036452722 -0.00021915673
-0.020907234 -0.00036577089 -0.00015608454
-0.021449357 -0.00038642948 -0.00018419465
-0.021937044 -0.00038532051 -0.00014945562
-0.02244103 -0.00033577252 -7.0225913e-05
-0.022907063 -0.00037986168 -7.4042706e-05
-0.02341594 -0.00043225149 5.5371551e-05
0.023472004 0.00040115719 -9.6928095e-05
0.023038696 0.00043988065 -0.00014135917
0.022540715 0.00038852287 -0.00015879516
0.022018151 0.00037738902 -0.00020103343
0.021531424 0.00040826481 -0.00018611597
0.021023732 0.00043715327 -0.00018661586
0.020538107 0.00037303939 -0.00020221842
0.020045647 0.00037111039 -0.00016094907
0.019558232 0.00035337114 -0.00025739416
0.019013567 0.00040614489 -0.00025499775
0.018542849 0.00036806334 -0.00026012608
0.018021943 0.00041620387 -0.0001789626
0.01756837 0.000379303 -0.00019474945
0.017081011 0.00034606189 -0.00018399232
0.016576694 0.00035342493 -0.00020762312
0.016059838 0.00039906567 -0.00023882918
0.01559969 0.00033853715 -0.00024494145
0.015024469 0.00037970825 -0.00020422286
0.014531035 0.00036199717 -0.0002103796
0.01405073 0.0004081662 -0.00018099905
0.013562132 0.0003540655 -0.00019817089
0.013075142 0.00039167242 -0.00018943276
0.012584885 0.00032196677 -0.00018393539
0.012046725 0.00035141449 -0.00018072419
0.011492589 0.00033670262 -0.00017661415
0.011010336 0.00033208664 -0.00017178198
0.01052174 0.00029660948 -0.00014587026
0.010010534 0.00036019052 -0.00016607135
0.0095480382 0.0003646398 -0.00018344959
0.0090680905 0.00031666044 -0.00015627436
0.0085441079 0.00033428613 -0.00014272082
0.0080674207 0.00033997191 -0.00012635253
0.007567273 0.00036576152 -0.00010694336
0.0070522167 0.00029677566 -0.00013783854
0.0065457886 0.00032666515 -0.00013950188
0.0060427971 0.00032253755 -0.00012051832
0.0055344785 0.00026953928 -0.00011414528
0.0050430866 0.00024900673 -0.00010388097
0.0045710239 0.00034102343 -0.00011347522
0.0040606195 0.0002989629 -0.00014366544
0.003617282 0.00027513382 -0.00012843625
0.0030793406 0.00026039936 -0.00012865374
0.0025449488 0.00030141851 -0.00014375025
0.0020494896 0.00026497582 -0.00012617049
0.0015356519 0.00027552817 -0.00013905269
0.0010540176 0.0002463235 -0.00011662712
0.00053878862 0.00024315956 -0.00014523226
7.7400065e-05 0.00024445981 -0.00015654817
-0.00045152643 0.00027713567 -0.00010991652
-0.00091830053 0.00022597828 -0.00013999775
-0.001450413 0.00024038524 -0.00011117089
-0.0019620429 0.00024467788 -0.00011263463
-0.0024452226 0.00027188292 -0.0001288362
-0.0029438564 0.0002396182 -0.00012420108
-0.0035021189 0.00023362962 -0.00012134312
-0.0039535207 0.00020957107 -0.00013632423
-0.0045009628 0.00024867011 -0.00011137937
-0.0049476223 0.00018455891 -0.00014251546
-0.0054663895 0.0002401997 -0.00012443936
-0.005933444 0.00025205602 -0.00012295513
-0.0064274007 0.00019484406 -0.00013979519
-0.0069396356 0.00019762071 -0.00012268376
-0.0074545913 0.00022405587 -0.00013434689
-0.0079553509 0.00021786449 -0.00012699491
-0.0084687881 0.00021700194 -0.00012324401
-0.0089481212 0.00018938875 -0.0002004868
-0.0094661517 0.0001997748 -0.00014701078
-0.0099386303 0.00022477855 -0.00019098353
-0.010443524 0.00020150398 -0.0001677472
-0.010913739 0.00020217133 -0.00013617019
-0.011426248 0.0002214298 -0.00016141997
-0.011948343 0.00019349548 -0.0001688198
-0.012453326 0.00018474291 -0.00014969485
-0.012957321 0.00019628595 -0.00012325565
-0.013450607 0.00018769607 -0.00010746194
-0.013909334 0.00020493212 -0.00011347583
-0.014440863 0.00013738399 -0.00011789741
-0.014944393 0.00018397567 -0.00013902585
-0.015423184 0.0001999528 -0.00015652773
-0.015918247 0.00015767739 -0.00017613068
-0.016448662 0.00018682668 -0.00018904405
-0.016939314 0.00014047278 -0.00017792219
-0.017450225 0.00015055633 -0.00021528348
-0.017936317 0.00015124935 -0.00018741237
-0.018447509 0.00015460479 -0.00018807594
-0.018953763 0.00015567441 -0.00022264349
-0.019423842 0.00010978617 -0.00016305514
-0.019921239 0.00010375667 -0.00016645971
-0.020461174 0.00013533595 -0.00018426788
-0.020931318 0.00012626802 -0.00016115676
-0.021462347 9.3427254e-05 -0.00014639669
-0.021906722 0.0001504157 -0.00012677722
-0.022425219 0.00013821723 -0.0001263665
-0.022903977 0.00016113999 -6.2084757e-05
-0.023399772 8.7113469e-05 -0.00014560623
0.023299443 0.00070124806 -0.00021456461
0.02304671 0.00091696973 -0.00022213813
0.022514274 0.00091772364 -0.00019641896
0.021999024 0.00090710213 -0.00019926298
0.021536952 0.00090407615 -0.00020279922
0.021093195 0.0008946209 -0.00020472589
0.020555096 0.00082888966 -0.00019227318
0.020064637 0.00089025509 -0.00018228125
0.019532681 0.00086469913 -0.00020314753
0.019045427 0.00087412447 -0.00023880519
0.018526273 0.00086910289 -0.00026033237
0.01802879 0.00093912741 -0.00020975899
0.017517593 0.00087516219 -0.00018662517
0.017036133 0.00082306867 -0.00021612796
0.016544901 0.00084532844 -0.00020281482
0.016041473 0.00084743544 -0.00023680157
0.015547875 0.00082639244 -0.00021303305
0.015086719 0.000893116 -0.0002451248
0.014505348 0.0008641337 -0.00021045527
0.014022516 0.00084999483 -0.00016223651
0.013544278 0.00085182715 -0.00015011511
0.013079882 0.00087350258 -0.00017712812
0.012565194 0.00081353018 -0.00019068946
0.012107668 0.00084764726 -0.00016929675
0.01155971 0.0008423957 -0.00017035869
0.011045322 0.0008380299 -0.00017660426
0.010532923 0.0007835438 -0.00015804858
0.010034867 0.00088649004 -0.00014922698
0.0095344819 0.00083676475 -0.00012973545
0.0090264007 0.00081441255 -0.00016438426
0.0085548507 0.00083751098 -0.00013541919
0.0080499882 0.00084724557 -0.00013172097
0.0075542917 0.00074900937 -0.00012403529
0.0070299003 0.00079626776 -0.00014615559
0.0065468317 0.00081576232 -0.00014396774
0.0060823536 0.00079301512 -0.00013303192
0.0055802823 0.00077115378 -0.0001180867
0.0050626164 0.00080660463 -8.9628011e-05
0.0045391852 0.00076410978 -0.00011913263
0.0040739882 0.00078354578 -0.00012414271
0.0035374251 0.00072904339 -0.00011819537
0.0030511636 0.00078037311 -0.00010292564
0.0025471174 0.00074966252 -0.00012156836
0.0020637657 0.00072150683 -0.00011519028
0.0015398426 0.00072790112 -0.00013731801
0.0010318074 0.00074016309 -0.00014098301
0.00055189204 0.00072763965 -0.00012745093
6.2520092e-05 0.00071859203 -0.00013483364
-0.00041304989 0.00073457736 -0.00013132334
-0.00093061762 0.00072362687 -9.2317241e-05
-0.0013936788 0.00073373987 -0.00010074567
-0.0019559197 0.00071900961 -0.00011654579
-0.0024679205 0.00071084965 -0.0001105174
-0.0029637474 0.00076421333 -0.00014426648
-0.0034698113 0.00072298018 -0.00014215391
-0.0039858497 0.00070064061 -0.00014468149
-0.0044430275 0.00074353389 -0.00011408143
-0.0049678809 0.00071637356 -0.00013744648
-0.0054732729 0.00073808525 -0.00011858495
-0.0059833736 0.00068225036 -0.00011133717
-0.0064707892 0.00073695823 -0.00010472222
-0.0069595799 0.00067528215 -0.00012001395
-0.0074513662 0.00070990063 -0.00012986863
-0.0079490039 0.00072428759 -0.00012702151
-0.0084511628 0.00069337484 -0.00015419663
-0.0089627542 0.00071017997 -0.00015326985
-0.0094671808 0.00067159109 -0.00017149397
-0.0099322135 0.00069014 -0.00016078592
-0.010459991 0.00069670635 -0.00015439757
-0.010944605 0.00066569337 -0.00016527227
-0.011481965 0.00068873935 -0.00018498534
-0.011964099 0.00070214778 -0.000176489
-0.012489962 0.00066582928 -0.00015735289
-0.012960573 0.00067610166 -0.0001690163
-0.013388584 0.00064469484 -0.00016085396
-0.01391654 0.00069377699 -0.00012213376
-0.014445468 0.00067078811 -0.00015785906
-0.014934508 0.00068013312 -0.00019611651
-0.01547214 0.00070951559 -0.00018470595
-0.015996538 0.00065839954 -0.00020597852
-0.016479708 0.00069412065 -0.00019178004
-0.016975407 0.0006260447 -0.00022910803
-0.017463341 0.00065571698 -0.00021607475
-0.017945159 0.00062427064 -0.00019846333
-0.018440275 0.00069796294 -0.0002128093
-0.018923769 0.00062791631 -0.00019415922
-0.019437831 0.00064782344 -0.0002248052
-0.019935992 0.00060345139 -0.00016997219
-0.020447746 0.00065294583 -0.00015218626
-0.020958584 0.00059400382 -0.00020709075
-0.021439921 0.00058919261 -0.00016110344
-0.021931324 0.00067970273 -0.00014942908
-0.02244617 0.00062604609 -8.7578082e-05
-0.022932824 0.0006869795 -0.00016307412
-0.0233576 0.00049692055 -0.00029278663
0.02298395 0.0014559581 -0.00022041146
0.022513239 0.0013972635 -0.00019733189
0.022041883 0.0013850274 -0.00019618962
0.021522848 0.0014118835 -0.00018499652
0.021042619 0.0013959645 -0.00018881611
0.020530829 0.0013863337 -0.00017674849
0.020047788 0.001408225 -0.00018439
0.019569604 0.0013974906 -0.00023721799
0.019015107 0.0014121527 -0.00025423965
0.018539594 0.0013903105 -0.00028398086
0.018043546 0.0014019823 -0.00019999105
0.017553177 0.0013956529 -0.00018381304
0.017041661 0.0013917944 -0.00019226898
0.01655646 0.0013430747 -0.00021070242
0.016095124 0.0013046701 -0.00020684779
0.015575505 0.0012992832 -0.00018449209
0.01505936 0.0013864459 -0.0002018346
0.014570292 0.0013908559 -0.00016793993
0.014081825 0.0013782566 -0.00018860248
0.013527881 0.0013511656 -0.00017816562
0.013066866 0.0013474213 -0.00016946765
0.012547103 0.0013368903 -0.00017208641
0.012028881 0.0013258538 -0.00015569071
0.011596013 0.0013138105 -0.0001738749
0.01107269 0.0013332183 -0.00016292033
0.010550746 0.0013823432 -0.00016756018
0.010058121 0.0013322469 -0.00015044567
0.0095456438 0.0013684735 -0.00016219146
0.0090019926 0.0012900787 -0.00013508229
0.008535672 0.0013498069 -0.00013547263
0.0080113774 0.0013179469 -0.00015017454
0.007524516 0.0013041249 -0.00013179961
0.007021314 0.0013011915 -0.00012185716
0.0065612495 0.0013143775 -0.00017114379
0.0060757804 0.0012704125 -0.00011196773
0.0055345828 0.0012775199 -0.00012817822
0.0050302641 0.0013195716 -0.00012820319
0.0045333751 0.0012978574 -0.00015203276
0.0040800842 0.0012747867 -0.00012278854
0.0036065979 0.0012452487 -0.0001168357
0.0030602403 0.0012915296 -0.00012180107
0.0025193291 0.0012489153 -0.00013176625
0.0020556806 0.0012255419 -0.00011819683
0.0015457952 0.001267552 -0.000144832
0.0010922812 0.0013026462 -0.00014860123
0.00055653614 0.0012242629 -0.00013572931
5.8969308e-05 0.0012697987 -0.00012401149
-0.00038519735 0.0012504261 -0.00011574898
-0.0008970194 0.0012809112 -6.6819215e-05
-0.0014564331 0.0012036979 -0.00011068161
-0.0019737929 0.0011783469 -7.5619784e-05
-0.0024995024 0.0012468927 -0.00011727857
-0.0029860551 0.0012121473 -0.00012308985
-0.0034552035 0.0012187787 -0.00014595495
-0.0039348011 0.0012199396 -0.00016027674
-0.0044828979 0.0012178246 -0.00014699888
-0.004967954 0.001220807 -0.00012416893
-0.0054503107 0.0012578139 -0.00014357973
-0.0059400266 0.0012248013 -0.00010914111
-0.0064819534 0.0012518682 -0.00014223822
-0.0069517186 0.0012172257 -0.00015029858
-0.0074722343 0.0012325265 -0.00010648597
-0.0079619726 0.0012329612 -0.00016293098
-0.0084687471 0.001175809 -0.00016080239
-0.0089885024 0.0012158714 -0.00019127928
-0.0094644409 0.0012104951 -0.00016985764
-0.0099622989 0.0011831571 -0.00018987205
-0.010479649 0.0012267323 -0.00019190932
-0.010986921 0.001196567 -0.0002066904
-0.011483356 0.0011819035 -0.00019624108
-0.011969924 0.0011622272 -0.00019673933
-0.012463669 0.001151194 -0.00014533568
-0.012945231 0.0011613108 -0.00020317186
-0.013471103 0.0011775143 -0.00016236224
-0.013925309 0.0011381793 -0.00018111162
-0.01443938 0.0011228283 -0.00015513611
-0.014940491 0.0011572437 -0.00020135858
-0.015462645 0.0011749587 -0.00017433893
-0.015951943 0.0011505918 -0.00019603909
-0.016436681 0.0011985527 -0.00016785902
-0.016924076 0.0011413482 -0.00019396981
-0.017464703 0.0011732453 -0.00020882802
-0.017939432 0.0011611844 -0.00020162389
-0.018468186 0.0011623265 -0.00017221761
-0.018937815 0.0011277122 -0.00022768881
-0.019477317 0.0011584051 -0.00019915029
-0.019955453 0.0011358209 -0.00019032485
-0.020429838 0.0011265568 -0.0002022977
-0.020940147 0.0011621881 -0.00019593362
-0.021463368 0.0011140667 -0.0001941123
-0.021936435 0.0011480927 -0.000161384
-0.022456024 0.0011023862 -0.00012208452
-0.022948626 0.0011260608 -0.00019512395
-0.023276839 0.0010161508 -6.3171145e-05
0.022945167 0.001877797 -0.00019439333
0.022532839 0.0019116689 -0.00021648407
0.022036752 0.0019068965 -0.00017702579
0.02151674 0.0019243532 -0.00020828517
0.02102527 0.0018756237 -0.00021143805
0.020543547 0.001897624 -0.0002136447
0.020074967 0.0019029385 -0.00019826205
0.019503614 0.0018905436 -0.00022268097
0.019045182 0.0018989909 -0.00025142997
0.018550485 0.00189117 -0.00028972549
0.018055238 0.0018622682 -0.00018584088
0.017507954 0.001826904 -0.00019010436
0.017040335 0.0018995095 -0.00018870097
0.016519452 0.0018198333 -0.00019734527
0.016032109 0.0018511582 -0.00017063913
0.015533031 0.001830803 -0.00019904156
0.015037814 0.0018680154 -0.00022445165
0.014531618 0.0018689418 -0.0002355373
0.014061551 0.0018462926 -0.00017582148
0.013552941 0.00184312 -0.00020895991
0.013060928 0.001831593 -0.0001658753
0.012487549 0.0018029356 -0.00016401138
0.011988378 0.001817442 -0.00018870982
0.011533869 0.0018383741 -0.00017400819
0.011050323 0.0018063048 -0.00017479243
0.010517665 0.0018768313 -0.00014409801
0.0099820485 0.0018575662 -0.00015529018
0.0095044151 0.0018812749 -0.00014174788
0.0090522375 0.0017871722 -0.00015574886
0.0085173035 0.001859359 -0.00016898522
0.0080695571 0.0017919204 -0.000138011
0.007520637 0.0018204257 -0.00015223218
0.0070511894 0.0017635725 -0.00015530764
0.0065337359 0.0018195395 -0.00014699978
0.0060348525 0.0017661294 -0.00015825749
0.0055265957 0.0018084515 -0.00013063778
0.0050473604 0.0017537083 -0.00015066698
0.0045532049 0.0018046641 -0.00015214889
0.0040165903 0.0017622695 -0.00011650784
0.0035256385 0.0017774677 -0.00013343402
0.0030502621 0.0017765767 -0.00011403707
0.0025190318 0.0017630233 -0.00012083695
0.0019973621 0.0017375748 -0.00012175133
0.0015496112 0.0017505984 -0.00011776769
0.0010213861 0.001785201 -0.00014949095
0.00054476643 0.0017376728 -0.00014019026
6.4421154e-05 0.0017702385 -0.00013041274
-0.00045856345 0.0017464785 -8.5428532e-05
-0.00093036226 0.0017664051 -9.2044284e-05
-0.0014690992 0.0017692238 -8.3194347e-05
-0.001977995 0.0016794293 -0.00010263364
-0.0024957662 0.0017625638 -9.2838309e-05
-0.0029720392 0.0017229849 -0.000134509
-0.0035067997 0.0017206221 -0.00018230409
-0.0039594602 0.0017283106 -0.00018241483
-0.0044132406 0.0017587366 -0.00018836779
-0.004916884 0.001728486 -0.00017117421
-0.0054622651 0.0017554055 -0.00013716522
-0.0059377747 0.0017146454 -0.00012559298
-0.0064798743 0.0017686127 -0.00014217786
-0.0069586737 0.0016880427 -0.00011459686
-0.0074485079 0.0017003976 -0.00014776509
-0.0079417117 0.0017075078 -0.00013627944
-0.0084607005 0.0016961022 -0.00018395967
-0.0089392969 0.0016736201 -0.00017154968
-0.0094237132 0.0017239936 -0.0001825277
-0.0099069886 0.0016816361 -0.00015310996
-0.010477141 0.0017242497 -0.00011724042
-0.010931286 0.0016767727 -0.00018939632
-0.011459375 0.0016582822 -0.00020990439
-0.011946079 0.0016999973 -0.00013839046
-0.012457932 0.0016614177 -0.00013275072
-0.012954245 0.0016515644 -0.00010929862
-0.013456825 0.0016591744 -0.0001238304
-0.013958142 0.001661509 -0.00012697699
-0.014488289 0.0016292203 -0.00015833683
-0.014985366 0.0016338094 -0.00016135303
-0.015488207 0.0016546777 -0.00016369962
-0.015957639 0.0016580722 -0.00020083121
-0.016461849 0.0016773226 -0.00021436822
-0.016961195 0.0016586783 -0.00018620305
-0.017456429 0.0016487351 -0.00021556788
-0.017950047 0.0016520714 -0.00019167142
-0.018457582 0.0016589132 -0.00019193674
-0.018943928 0.0016148989 -0.00020079862
-0.019452222 0.0016738581 -0.00019928231
-0.019974558 0.0016162483 -0.00018149684
-0.020482326 0.0016760759 -0.00018401723
-0.020947814 0.0016268082 -0.00014160632
-0.021458309 0.0016268495 -0.00017065438
-0.021922063 0.0016178271 -0.00016546482
-0.022469888 0.0015816685 -0.00015065237
-0.022934569 0.0016432308 -0.00018002652
-0.023868645 0.0016749566 -0.00033963635
0.022972334 0.0024445271 -0.00013985578
0.022509087 0.0023639589 -0.00018744217
0.022046618 0.0024030795 -0.00020589819
0.021549908 0.0024217514 -0.00020065834
0.021046525 0.00243623 -0.00018007809
0.02055281 0.0023814656 -0.00017551519
0.020052284 0.0024182168 -0.00019930233
0.01953044 0.0023801986 -0.00017829449
0.019029049 0.0023805809 -0.00023739261
0.018501302 0.0023401952 -0.00025112345
0.018036013 0.0023833269 -0.00024228764
0.017583497 0.0024047061 -0.00019896962
0.01708911 0.0023691487 -0.00019979966
0.016584942 0.0023195879 -0.00019663794
0.016081065 0.0023734446 -0.0001928038
0.015542338 0.0023530331 -0.00018829445
0.014992677 0.0023688215 -0.00019447389
0.014503826 0.0023686104 -0.000248875
0.014030142 0.0023600911 -0.00025094952
0.013526232 0.0023274175 -0.00021866732
0.013047731 0.0023503702 -0.00018761237
0.012591752 0.0023816025 -0.00017150713
0.012079198 0.0023233339 -0.00017712545
0.011554774 0.0023108087 -0.00017393543
0.011033155 0.0023638448 -0.00015885476
0.010493706 0.0023599514 -0.00014523271
0.010035438 0.0022956594 -0.00013348274
0.0095264548 0.002370639 -0.0001422668
0.009028649 0.0023140472 -0.00014269014
0.0085684992 0.0022989714 -0.00017295993
0.0080618681 0.0023081971 -0.00015119853
0.0075571756 0.0023202691 -0.00015350641
0.0070241713 0.0022979097 -0.00014732761
0.0065272907 0.0023358243 -0.00018278899
0.006066062 0.0023152637 -0.0001485392
0.005538105 0.0023015181 -0.00014937989
0.0050461688 0.0022855559 -0.00017995195
0.0045826542 0.0022945721 -0.00015917904
0.0040273722 0.0022897676 -0.00016483647
0.0035489572 0.0022598489 -0.00015544466
0.003018436 0.0022943309 -0.00015630378
0.0024773334 0.0022816388 -0.00012941708
0.0019913926 0.0022726257 -0.0001437575
0.0015095787 0.0022657891 -0.00015609351
0.0010350532 0.0022702266 -0.00014590958
0.0005403629 0.0022731698 -0.00014914689
4.1211781e-05 0.0022674699 -0.00014392365
-0.00046316732 0.0022634508 -0.00014233934
-0.00097199046 0.0022864761 -0.00012462826
-0.0015012297 0.0022700557 -0.00010342367
-0.0019784849 0.0022994746 -0.00011647836
-0.0024844939 0.0022310019 -9.9394005e-05
-0.0029507985 0.0022608885 -0.00011792184
-0.0034652418 0.0022608631 -0.00017474816
-0.003964371 0.0022688834 -0.00020511122
-0.0044772434 0.002232081 -0.00021167667
-0.0049638124 0.0022418732 -0.00018666752
-0.0054736631 0.0022401037 -0.00015752972
-0.0060026594 0.002273354 -0.00014517258
-0.0064835399 0.0022611821 -0.00013539614
-0.0069826939 0.0022202886 -0.00012840872
-0.0074622906 0.002223474 -0.00012295158
-0.0079548908 0.0022085051 -0.00014563615
-0.0084599899 0.0021952307 -0.00018303201
-0.0089613488 0.0022060876 -0.000178152
-0.0094814505 0.0021647313 -0.00017365831
-0.0099975429 0.0021837577 -0.00015029981
-0.010496491 0.0022105281 -0.00013660447
-0.010988625 0.0021885862 -0.00013177888
-0.011515887 0.0021705101 -0.00015995651
-0.011965583 0.002188283 -0.00017844269
-0.012452124 0.0021244809 -0.0001362405
-0.012935372 0.0022128106 -0.00014101446
-0.013465725 0.002178032 -0.00012001663
-0.013941192 0.002169735 -0.00013073871
-0.014476154 0.0021832855 -0.00014518399
-0.014977159 0.0021684989 -0.00016203639
-0.01544549 0.0021465751 -0.00018067646
-0.015938846 0.0021862232 -0.00019185082
-0.016450588 0.0021801814 -0.00016373163
-0.016936585 0.0021515596 -0.00019013684
-0.017473521 0.0021770145 -0.00018713344
-0.017971277 0.0021632952 -0.000172275
-0.018469647 0.0020704737 -0.00017994281
-0.018938128 0.002138901 -0.00015914661
-0.019441552 0.0021182206 -0.00015434437
-0.019941879 0.0021508206 -0.00021035527
-0.020473847 0.0021480313 -0.00017004739
-0.020968288 0.0021420696 -0.00016043335
-0.021490574 0.0021343709 -0.00015692436
-0.021972446 0.0021147728 -0.00011054496
-0.022456875 0.0021515491 -0.00011400366
-0.022912689 0.0020906362 -0.00012704241
-0.023433853 0.0020985496 -0.00025985716
-0.02382759 0.00216302 -0.00026618526
0.023405805 0.0028852085 -7.333071e-05
0.022969579 0.0029646361 -0.00017204904
0.022537975 0.0029375707 -0.00014807773
0.021988409 0.002902146 -0.0002228925
0.02149928 0.0028825249 -0.00021071802
0.021050649 0.0029099891 -0.0002209493
0.020540735 0.0028964491 -0.00020786189
0.020046631 0.0029135072 -0.00019957719
0.019534219 0.0028543533 -0.00020944467
0.019018706 0.0029050554 -0.00017024786
0.018487791 0.0028492331 -0.00019080308
0.01800791 0.0028801332 -0.00019626005
0.0174876 0.0028880443 -0.00020538922
0.017015444 0.0028356281 -0.00018517883
0.016542654 0.0028081117 -0.00017440412
0.016054669 0.0028924292 -0.00019245886
0.015574506 0.0028488236 -0.00021840923
0.015077382 0.0028491393 -0.00021196378
0.014526869 0.00284142 -0.00026526407
0.014016761 0.0028406631 -0.00023299642
0.01351817 0.0028499281 -0.0002130589
0.013056438 0.0028263268 -0.00017981755
0.012504915 0.0028722933 -0.0001748408
0.012041047 0.0027991887 -0.00016320217
0.011549352 0.0028019482 -0.0001468847
0.011041387 0.00291254 -0.00015872053
0.010508903 0.0028585284 -0.00013589894
0.010045401 0.0028261377 -0.00012804306
0.0094600031 0.0028620234 -0.0001408665
0.0090453373 0.0027829236 -0.0001535237
0.0085902847 0.0028254325 -0.0001551889
0.0080598714 0.0027829418 -0.00015287235
0.0075489925 0.0027929749 -0.00017611438
0.0070380252 0.0027821909 -0.00017726066
0.0065211402 0.0028245763 -0.00016378163
0.0060105398 0.0027760672 -0.00015901012
0.0055091735 0.0027939996 -0.00018613657
0.0050542001 0.0027722795 -0.00016743451
0.004554756 0.0027674129 -0.00018118805
0.0040855352 0.0027598802 -0.00015190209
0.003557221 0.0027563886 -0.0001700368
0.003070445 0.0027994046 -0.00013790009
0.0025516707 0.0027591754 -0.00015340923
0.0020309845 0.0028091834 -0.00013341426
0.001516428 0.002739754 -0.00013062934
0.0010334699 0.0027844615 -0.00015067963
0.00054601725 0.0027439788 -0.00015556878
7.3071162e-05 0.0027562047 -0.00013780443
-0.00049314019 0.0027587658 -0.00015404298
-0.00097305811 0.0028119942 -0.00020778006
-0.0014662654 0.0027716961 -0.00013264094
-0.0019977281 0.0028098032 -0.00012005976
-0.0024437178 0.0027528766 -0.00011648975
-0.0029466723 0.0027442086 -0.00012568521
-0.0034561446 0.0027341922 -0.00017492156
-0.0039518829 0.0027793744 -0.00020036986
-0.0044736797 0.0027366821 -0.00015148605
-0.0049880468 0.0027649566 -0.00020184965
-0.0054822341 0.0027296557 -0.00014771879
-0.0059591243 0.002767219 -0.00011478073
-0.0064951954 0.002743297 -0.00013497722
-0.0069575175 0.0027137767 -0.00012461719
-0.0074617118 0.0027109962 -0.00014974532
-0.0079626124 0.0026794975 -0.00012931938
-0.0084659997 0.0027196514 -0.00013467023
-0.0089385705 0.0026864286 -0.00018361915
-0.0094170095 0.0026837096 -0.00018047774
-0.009911418 0.0026942939 -0.00018835231
-0.010473314 0.0026998075 -0.00015095022
