# .PCD v0.7 - Point Cloud Data file format
VERSION 0.7
FIELDS x y z
SIZE 4 4 4
TYPE F F F
COUNT 1 1 1
WIDTH 1334
HEIGHT 1
VIEWPOINT 0 0 0 1 0 0 0
POINTS 1334
DATA ascii
0.10754647 0.060977366 0.0089064427
0.077896543 0.061143629 0.0088462606
0.078206524 0.061188001 0.0087385215
0.078719698 0.061206028 0.0087449346
0.079281971 0.061337847 0.0087433644
0.079691835 0.061336745 0.00873587
0.08025644 0.061265778 0.0087523246
0.080741346 0.06124039 0.0087378444
0.081266567 0.061291356 0.0087539675
0.081677377 0.06133331 0.0087585999
0.082215995 0.06129935 0.0086773718
0.082669348 0.061146218 0.0087442538
0.083230488 0.061140042 0.0087770745
0.083742224 0.06112963 0.0087931203
0.084284849 0.061139341 0.0087601095
0.084787905 0.061197899 0.0087515954
0.085247084 0.061244138 0.0087348418
0.085773759 0.061281588 0.0087303957
0.086232737 0.06120041 0.0087458622
0.086691961 0.061170939 0.0087227589
0.087199613 0.061168704 0.008759167
0.087748379 0.061165571 0.0087288814
0.088323019 0.061185043 0.0087563768
0.088790894 0.061200283 0.008763398
0.089221537 0.061250936 0.0087118419
0.089738272 0.06122316 0.0087171877
0.090286322 0.061292708 0.0088127041
0.090737268 0.061269522 0.0087290481
0.091218717 0.061255842 0.0087332539
0.091722354 0.061350413 0.0087176496
0.092240058 0.06131037 0.0088009117
0.092761897 0.061273076 0.008757975
0.093286395 0.06126038 0.0087624211
0.093754642 0.061175566 0.00877418
0.094263427 0.061223984 0.0087906811
0.094789505 0.061224043 0.0087343054
0.095210604 0.061206505 0.00877662
0.09571483 0.061194781 0.0087498426
0.096276008 0.06116239 0.0087244501
0.096741438 0.061185192 0.0087509546
0.097256191 0.061198488 0.0087892618
0.097775906 0.061287113 0.0086750528
0.098308817 0.061280552 0.0087508997
0.098749638 0.061355066 0.0087594017
0.09924718 0.061361056 0.0087339245
0.099778973 0.061370801 0.0086971205
0.10031218 0.061380949 0.0088092368
0.10068946 0.061284959 0.0087656099
0.10120059 0.061262462 0.0087124193
0.10169041 0.061288252 0.0087538715
0.10223969 0.061299939 0.0087510431
0.1027558 0.061328687 0.008753092
0.10325208 0.061348096 0.0087216804
0.10372751 0.061361011 0.0087398915
0.10427294 0.061349716 0.0087671475
0.10477961 0.061380018 0.0087311622
0.10523289 0.061380677 0.0087969918
0.10572518 0.061392803 0.0087568704
0.10628694 0.061396066 0.0087633617
0.10674758 0.061378688 0.0087657496
0.10720434 0.061390657 0.0087749138
0.10775726 0.061243456 0.0087643433
0.10825437 0.061276827 0.008740088
0.10870256 0.061275214 0.0087627312
0.10929725 0.061298672 0.0087229339
0.10980103 0.061338581 0.0087228743
0.11030506 0.061363343 0.0087259077
0.11079807 0.061387267 0.0087297671
0.11124296 0.061342694 0.0087239947
0.11175286 0.061370451 0.0087252716
0.11224803 0.061364312 0.0087586455
0.11274964 0.061384104 0.0087779276
0.11320712 0.061403904 0.0087222839
0.11373641 0.06144321 0.0087245014
0.11428256 0.06142709 0.0087233819
0.1147639 0.061404359 0.0087769404
0.11529797 0.061395366 0.0087447623
0.11580167 0.061214894 0.0087507311
0.11623026 0.061209224 0.0087236296
0.11669438 0.06120801 0.0087774238
0.1173123 0.061272733 0.0087334244
0.11774208 0.061337702 0.0087689245
0.11823644 0.061385043 0.0087462477
0.11875476 0.061411023 0.0087293386
0.1191655 0.061467368 0.0087894509
0.11963812 0.061481729 0.0086642802
0.12030083 0.06145443 0.0085822083
0.12074955 0.06146377 0.0088047916
0.1212187 0.061471373 0.0089930193
0.12186117 0.061448671 0.0089892894
0.12207096 0.061343316 0.008874964
0.12254186 0.06149672 0.0085147535
0.12346677 0.061492782 0.00885031
0.12402309 0.0614876 0.0086534172
0.078291751 0.061853282 0.0087632313
0.078783527 0.061755825 0.0087902751
0.079050563 0.061737727 0.0087484894
0.08195667 0.061506376 0.0088088568
0.082317166 0.061544925 0.0088143582
0.082720503 0.061606467 0.0087441588
0.083254263 0.061632585 0.0087563228
0.08379817 0.061616309 0.0087566869
0.084236071 0.061588407 0.0088165645
0.084745213 0.061530776 0.0087865945
0.085924082 0.061508298 0.0087723071
0.086278886 0.061563015 0.0087247621
0.090663433 0.06151282 0.0088532344
0.091204002 0.061522041 0.0088283885
0.094791867 0.061647855 0.0087403515
0.095155753 0.061551433 0.0088821575
0.10389302 0.06155052 0.0088186637
0.10424008 0.061580908 0.0087267263
0.10466093 0.061526742 0.0086936997
0.1052204 0.061532624 0.0086694993
0.11474199 0.061566997 0.0088333609
0.11524121 0.061613791 0.0087554166
0.11575331 0.061661556 0.0087243719
0.11626616 0.061574344 0.0087287799
0.11676554 0.061560046 0.0086934138
0.11726489 0.061574012 0.0087419571
0.11773946 0.061561625 0.0087372838
0.11817781 0.061581396 0.0087439455
0.11874477 0.061621744 0.0087454766
0.11929607 0.061617445 0.008748767
0.11976634 0.06164458 0.0087653082
0.12024415 0.061633565 0.0087713571
0.12075368 0.061651688 0.0087417141
0.12131383 0.061605133 0.0087637855
0.12175985 0.061608609 0.0087375669
0.12226237 0.061599724 0.0086885337
0.12276149 0.061636198 0.0087552778
0.12327764 0.061628677 0.0087286551
0.1237143 0.061585438 0.0087831654
0.12423823 0.061577119 0.0087855775
0.12456513 0.061672308 0.0087635145
0.077326335 0.062220965 0.0086590713
0.077787697 0.062056851 0.00869531
0.078469463 0.062327571 0.0087991031
0.078693435 0.062208999 0.0087712165
0.12555191 0.062247075 0.0089683272
0.078493558 0.062809326 0.0086954664
0.078601904 0.062632687 0.0087414393
0.12545641 0.06278678 0.0087389974
0.12553044 0.062548101 0.0089318026
0.078394704 0.063210979 0.0087497123
0.078510582 0.063329145 0.008754747
0.12535152 0.063239634 0.008811662
0.12552005 0.063242048 0.0086508663
0.078376487 0.063738219 0.0087274965
0.07858029 0.063758604 0.0086816475
0.12534182 0.063709989 0.0087045338
0.12554863 0.063726328 0.0087128468
0.078304023 0.064308375 0.0087681198
0.078604273 0.064214371 0.0087374868
0.1254497 0.064219609 0.0087423865
0.12551336 0.064295121 0.008892661
0.078246005 0.064759344 0.0087460978
0.078605495 0.064693406 0.008763101
0.12548962 0.064726733 0.0086643174
0.12551169 0.06478665 0.0088064121
0.078303754 0.06529136 0.0088087386
0.07860443 0.065298796 0.0088019045
0.12548538 0.065286726 0.0088001089
0.12550801 0.065261938 0.0086412588
0.078314796 0.065747492 0.0088102613
0.078602158 0.065775588 0.008799619
0.12549217 0.065782227 0.0087662032
0.078424923 0.06627427 0.0087821931
0.078599565 0.066233106 0.0087577524
0.12549727 0.066097349 0.0085223364
0.12556237 0.066283166 0.0087744035
0.078456886 0.066716343 0.0087015741
0.078523695 0.066755995 0.0088206436
0.12545866 0.066521794 0.0085541066
0.12556556 0.066753313 0.0087553086
0.07842999 0.067379735 0.0086616827
0.078571036 0.067262523 0.0088145547
0.12546334 0.067267895 0.0086317174
0.12562591 0.067283303 0.0087370407
0.07831721 0.067794412 0.0087189209
0.07858067 0.06773074 0.0087642316
0.12546198 0.067591757 0.0086539881
0.1256377 0.067770824 0.0087466203
0.078359865 0.068225101 0.0087137725
0.07857728 0.068270653 0.008755465
0.12549424 0.068259761 0.0086032916
0.1256517 0.068259194 0.0087840548
0.078396551 0.068797342 0.0087127239
0.078600697 0.068779543 0.0087050032
0.12565374 0.068799734 0.008731409
0.12605608 0.068897009 0.0086095631
0.078353271 0.069292128 0.0087421667
0.078550853 0.069179758 0.0087912427
0.12536943 0.069019139 0.008865728
0.12567209 0.069259062 0.0087575
0.078325234 0.069788523 0.0088150213
0.078612454 0.069721863 0.0086948434
0.1256222 0.069718808 0.0087708915
0.077958308 0.070434622 0.0085043181
0.078219317 0.070260145 0.0087085376
0.07859882 0.070180275 0.0087520694
0.12548214 0.070295744 0.0087491861
0.12564644 0.070223942 0.008804325
0.078253701 0.070774741 0.0087288376
0.078647949 0.070742644 0.0086851027
0.12536201 0.070882477 0.008736792
0.12559867 0.070787348 0.0087594064
0.078259088 0.071277343 0.0086914031
0.078607425 0.071334623 0.008707827
0.1253904 0.071216911 0.0087465048
0.12559475 0.071184695 0.0087401792
0.078270033 0.071724534 0.0087290928
0.078615651 0.071777374 0.0087200748
0.1254808 0.071612217 0.0087205796
0.12559277 0.071690239 0.0087702665
0.078317158 0.072332852 0.0087462785
0.078679085 0.072149411 0.0087679001
0.12561713 0.072258763 0.0087415623
0.07832884 0.072784871 0.0087772626
0.07860899 0.072651267 0.0087308958
0.12561525 0.07273981 0.008768429
0.078271039 0.073262937 0.0087695774
0.078600183 0.07320556 0.0087223565
0.12563333 0.073264286 0.0087621408
0.077949092 0.07378763 0.0086214812
0.07825689 0.073710836 0.0087990817
0.078659095 0.073687412 0.0087557398
0.12560417 0.073729306 0.0087435534
0.077937491 0.074233189 0.0087855579
0.078420267 0.074234053 0.0087708281
0.078589201 0.074263267 0.0087324586
0.12552276 0.074288316 0.0087063704
0.077936947 0.074917451 0.0087002777
0.078392491 0.074672721 0.0086592371
0.078541026 0.07472261 0.0087584192
0.12545587 0.074828066 0.0087271994
0.1255177 0.074747093 0.0087393522
0.077930205 0.075255878 0.0087686628
0.078354068 0.075243965 0.0087488974
0.078501701 0.075207785 0.0086321458
0.12549122 0.075254135 0.0087298695
0.12550999 0.075180359 0.0087379133
0.077926382 0.075689487 0.0087592695
0.078379914 0.075761057 0.0087623736
0.07851553 0.075741023 0.0086226333
0.1254392 0.075673684 0.0087743178
0.12554877 0.075672992 0.0086441478
0.077822134 0.076023437 0.0088120494
0.078360356 0.076273598 0.0087500988
0.078560203 0.076419219 0.0087091513
0.12540695 0.07628157 0.0087410212
0.12557039 0.076191731 0.0086884452
0.078328341 0.076731741 0.0088184755
0.12543473 0.076816678 0.0087534459
0.12557356 0.07674323 0.0087368414
0.07831388 0.077247538 0.0087454561
0.12544324 0.077313416 0.0087054698
0.12554608 0.077166766 0.0087425429
0.078399383 0.077702537 0.0087352404
0.12541687 0.077779636 0.0087545253
0.12551349 0.07763768 0.0087537151
0.078426473 0.078273073 0.0087347925
0.12539271 0.078263819 0.0087517481
0.12563518 0.078226492 0.0087602586
0.07842043 0.078813948 0.0087767411
0.12541579 0.078756951 0.0087786382
0.12557608 0.078752197 0.0086949905
0.078365013 0.079244524 0.0088180909
0.078612752 0.079229549 0.0086807022
0.12539387 0.079248115 0.0087028584
0.078434527 0.07969483 0.0086872345
0.12535836 0.079741761 0.0087589361
0.12552309 0.079796053 0.0089403382
0.078443341 0.080166064 0.008709399
0.12531702 0.080245815 0.0087494291
0.12552652 0.080324106 0.008785761
0.078424647 0.080787241 0.0087101161
0.078592233 0.080686942 0.0086278897
0.1253096 0.080752671 0.0087262029
0.12553108 0.080708906 0.0087505598
0.07841602 0.081329733 0.0086878585
0.078513056 0.081156671 0.0087859482
0.12535124 0.081238732 0.0087548504
0.1255385 0.081214465 0.008757446
0.078387946 0.081767805 0.0087265745
0.078549922 0.081923723 0.0087168524
0.12539616 0.081811957 0.0087395683
0.12554443 0.081618927 0.0087629566
0.0783723 0.082222119 0.008786846
0.078620136 0.082260683 0.008802929
0.12546653 0.08226265 0.0087920455
0.078279525 0.082672767 0.0087493118
0.078539468 0.082684927 0.008757568
0.12536143 0.082743004 0.0088006184
0.12553237 0.082793742 0.0087787379
0.07828372 0.083128355 0.0087373937
0.078512922 0.083291672 0.0086827185
0.12538938 0.08324448 0.0087129939
0.12552854 0.083225146 0.0087368805
0.078270078 0.083746515 0.0087875249
0.07854481 0.083746284 0.0086759273
0.12538135 0.08373604 0.0087179923
0.12556332 0.083778381 0.0087618921
0.07836061 0.084293768 0.0087827751
0.078601465 0.084343441 0.0088061737
0.12537946 0.084270887 0.0087713078
0.12571429 0.084263422 0.0087609971
0.078354388 0.084787294 0.0087581938
0.078600444 0.084797323 0.0087588252
0.12536369 0.084728241 0.008740373
0.12573628 0.084772967 0.008720425
0.07832849 0.0852677 0.0087580271
0.07859122 0.08523266 0.0086870175
0.12537529 0.085253008 0.008762572
0.12564196 0.085267209 0.0087433495
0.078282885 0.085724384 0.0087290062
0.078606106 0.085766599 0.0087357564
0.1254085 0.085713729 0.0087795286
0.12565242 0.085622922 0.0088019408
0.078292683 0.086225018 0.0087001771
0.078693725 0.086299181 0.0088323746
0.12540776 0.086240664 0.0087430114
0.1255109 0.086248443 0.0087634698
0.078340612 0.086740524 0.0087515544
0.078748882 0.086815611 0.0087599549
0.12540561 0.086749353 0.008721374
0.07797382 0.087015256 0.0085154288
0.07832519 0.087270923 0.0087290062
0.078848027 0.087327719 0.0087467879
0.12546365 0.087245703 0.0087069422
0.12562655 0.087327003 0.0088275345
0.077962719 0.087831147 0.0086107114
0.078305542 0.087800123 0.0087572178
0.078884959 0.087828055 0.0086717755
0.12546146 0.087698244 0.0087331291
0.12564081 0.087804414 0.0087747695
0.077980787 0.088177204 0.0087023601
0.078320079 0.08828368 0.0087356428
0.078867733 0.088347107 0.0087306872
0.12546976 0.088235065 0.0088059502
0.12564577 0.088263825 0.0087411497
0.077962883 0.088800207 0.0087009314
0.078247815 0.088725679 0.008828097
0.078850284 0.088865347 0.008789584
0.12544923 0.088719323 0.0087502729
0.12566763 0.088802181 0.0087059792
0.07797838 0.0893365 0.0086485045
0.078251354 0.089272432 0.0087963259
0.078848824 0.089248314 0.008829846
0.12542011 0.089192718 0.0087695066
0.12567773 0.089213207 0.0087394854
0.077876978 0.089936212 0.0086861923
0.078282207 0.08980649 0.0087850979
0.07877136 0.089675225 0.0086813727
0.12540083 0.089719482 0.0087282555
0.12561247 0.089751735 0.0087370947
0.077825129 0.090179883 0.0086577572
0.078287221 0.090293489 0.0087226415
0.1254212 0.090245254 0.0087309768
0.12558609 0.090179563 0.0087456973
0.078274019 0.090757161 0.0087569878
0.12544858 0.090734683 0.0087190745
0.12551139 0.090840712 0.0088582039
0.078256555 0.091274574 0.0087616965
0.078503817 0.091337338 0.0085575758
0.12542969 0.091232754 0.0087070661
0.07825733 0.091763094 0.0087689273
0.12538897 0.091771595 0.0087604858
0.12550995 0.091551721 0.0088861715
0.07796941 0.092360459 0.0086512258
0.078234807 0.092253737 0.0087693548
0.078511164 0.092470303 0.0086720102
0.12537989 0.092232525 0.0087610958
0.077976562 0.092733905 0.008611476
0.078182541 0.092728212 0.0087379422
0.078515708 0.092739142 0.0088276789
0.12531105 0.092731565 0.0087341415
0.12570249 0.092898734 0.0088591734
0.077981621 0.093271315 0.0086320667
0.078179367 0.093192443 0.0087971734
0.07854034 0.093116142 0.0087161688
0.1252975 0.093248039 0.0087378835
0.12573443 0.093326449 0.0088449037
0.077976525 0.093696639 0.0087892404
0.078195259 0.093699254 0.0087559531
0.078566931 0.093680039 0.008725496
0.12532771 0.093712822 0.0087805372
0.12573987 0.093753122 0.0087886509
0.077980712 0.094220012 0.0088043716
0.078223549 0.094294623 0.0088206641
0.07858935 0.094082326 0.0086652497
0.12532544 0.094246343 0.0087384796
0.12568471 0.094275005 0.0087652365
0.078260772 0.094823197 0.0087888949
0.12535402 0.094754696 0.0087173237
0.12563606 0.09477023 0.0087707462
0.077986762 0.095362969 0.0088117961
0.078262657 0.095281757 0.0087548522
0.12538373 0.095194444 0.0087296618
0.12563802 0.095217593 0.0087053562
0.077833943 0.095660403 0.0088237701
0.078281157 0.095736034 0.0087629985
0.12538749 0.095709309 0.0087477462
0.1256616 0.09571974 0.0088019399
0.077653959 0.096004061 0.0086660953
0.07828927 0.096243903 0.0087425197
0.12534261 0.096217647 0.0087151639
0.12558268 0.096194707 0.0087308176
0.07799346 0.096855573 0.0088832611
0.078263424 0.096718878 0.0087359725
0.078509301 0.096818604 0.0086333603
0.12539306 0.096754529 0.0086513963
0.12557445 0.096722871 0.0087910341
0.077994429 0.097281784 0.0088257743
0.078267597 0.097217925 0.0087014399
0.078524135 0.097046137 0.0088711027
0.12540579 0.097263902 0.008691459
0.12552375 0.097148702 0.0087984474
0.077893019 0.097714186 0.0087174913
0.078377046 0.097741567 0.0087302392
0.12537296 0.097740792 0.0086702993
0.12552212 0.097826816 0.0088010756
0.07780727 0.098209232 0.008697141
0.078360088 0.098271087 0.0087252632
0.078509495 0.098379917 0.0089772502
0.12536971 0.09827736 0.0087238578
0.077776015 0.098647363 0.0087017575
0.078350276 0.098735638 0.0087807216
0.078503549 0.098732717 0.0086275861
0.12536757 0.098754063 0.0087481523
0.07781186 0.099303812 0.0086880066
0.078295447 0.09923251 0.0087194955
0.078551956 0.099238299 0.0088711865
0.1253459 0.099226214 0.0087545365
0.077862196 0.099793687 0.0086411238
0.078189753 0.099723443 0.0088293105
0.078521453 0.09970621 0.0087945424
0.12529086 0.099734955 0.0087235263
0.12551789 0.09973111 0.0088381767
0.077996626 0.10011302 0.0087565836
0.078174882 0.10027679 0.0087486347
0.078580402 0.10025341 0.0088044899
0.1253389 0.10022939 0.0087386798
0.12551679 0.10036393 0.0088506294
0.077978685 0.10070964 0.0085702473
0.078195609 0.10074511 0.0087509481
0.078536592 0.10083798 0.008806156
0.1253487 0.10072704 0.0088022202
0.078209199 0.10123365 0.0087652253
0.078510307 0.10118871 0.0088071562
0.12536737 0.1012762 0.0087887393
0.12550697 0.10102968 0.0087292697
0.078188084 0.10174965 0.0087182587
0.12537469 0.10175174 0.0087793078
0.1255098 0.10162783 0.0086745396
0.078201972 0.10218119 0.0087453956
0.12538202 0.10225377 0.0087656472
0.078222528 0.10276406 0.0087793944
0.12533906 0.1027902 0.0087509258
0.078233398 0.10326275 0.0087446664
0.12533696 0.10321593 0.0087087424
0.078213736 0.10379051 0.0087214932
0.12531745 0.10369027 0.0087333508
0.078248911 0.10427358 0.0087848296
0.12531196 0.10425197 0.0087650809
0.07823658 0.10475433 0.0087421592
0.12528214 0.10480513 0.0087588839
0.078218967 0.10528538 0.0087907733
0.12524003 0.10527258 0.0087514771
0.078236416 0.10576379 0.008706063
0.12527525 0.1057803 0.0087529197
0.078231841 0.10624771 0.008704396
0.12527187 0.10625171 0.0087439343
0.077991553 0.10671574 0.0088924998
0.078222632 0.10671867 0.0087454757
0.12531115 0.10675286 0.0087445863
0.077946559 0.10729494 0.008675742
0.078227356 0.10726087 0.0087298546
0.12525652 0.10723764 0.0087752203
0.1255233 0.10716422 0.0086897602
0.077915944 0.10784626 0.0087397695
0.078190573 0.10775117 0.0087334393
0.1253058 0.10776401 0.0087616481
0.12553562 0.10771963 0.0087355552
0.077880912 0.1083136 0.0087411003
0.078156255 0.10830159 0.0087529439
0.12528554 0.10825745 0.0087463241
0.12554541 0.10829058 0.0087814918
0.077845894 0.10878094 0.008742433
0.078163996 0.10875404 0.0087847868
0.12536767 0.1088203 0.0087743178
0.12550551 0.10853668 0.0087839598
0.077809915 0.10922458 0.0087904837
0.078193419 0.10925269 0.0087617049
0.12531321 0.10924429 0.0087756403
0.077886298 0.10974383 0.008833806
0.078191996 0.10971203 0.0087275933
0.12496905 0.1099939 0.0086923791
0.12526181 0.10970389 0.008778655
0.077962659 0.1101169 0.0088668661
0.078278385 0.11025379 0.0086963596
0.12499336 0.11045951 0.0086618196
0.12527713 0.11022305 0.0087506641
0.077985615 0.11074281 0.0088115791
0.078254364 0.11073934 0.0087725492
0.078506388 0.11096204 0.0086249122
0.12527399 0.11077653 0.0087334076
0.077967107 0.11132886 0.00874855
0.078259803 0.1111922 0.0087297317
0.12529394 0.11120706 0.0087244567
0.077956162 0.11182798 0.0087214177
0.07823927 0.11172561 0.008739044
0.12531497 0.11167967 0.0087490808
0.077943124 0.11218777 0.0086957589
0.078246132 0.11222228 0.0087031685
0.078512631 0.11235231 0.0087380763
0.12529397 0.11227985 0.0087112701
0.077912509 0.11273102 0.00870209
0.078262024 0.11276247 0.0087690186
0.078549951 0.11259571 0.0088883666
0.12526771 0.11276329 0.0087855943
0.077906147 0.11324907 0.0087374169
0.078223728 0.11324881 0.0087099187
0.12525524 0.11323883 0.0087649543
0.077941753 0.11377703 0.0088105127
0.078094512 0.11374325 0.008701982
0.12531716 0.11373097 0.0087538725
0.0779275 0.11440537 0.0088175284
0.078141451 0.11429559 0.0087519847
0.1253273 0.11424547 0.0087788403
0.077945344 0.11480633 0.0087472806
0.078148291 0.11475411 0.0087233186
0.12531428 0.1146981 0.0087755611
0.12552078 0.11495927 0.0088951522
0.07798671 0.11525703 0.0087883631
0.078175589 0.11519609 0.0087464312
0.12533323 0.11527808 0.0087572718
0.077819452 0.11576568 0.0086961938
0.078167491 0.11571453 0.0087398924
0.12518336 0.11576374 0.008834241
0.077821165 0.11623849 0.0087023266
0.07817509 0.116166 0.0087047489
0.12519848 0.11624882 0.0087335426
0.077908091 0.11672224 0.0087590721
0.078165308 0.11677204 0.008721116
0.1252297 0.11673085 0.0087557845
0.077948056 0.1173002 0.0087855551
0.078172907 0.11729006 0.0087340269
0.12520808 0.11727086 0.0087513141
0.0778879 0.11779934 0.0087756813
0.078178436 0.11776524 0.0087738503
0.12518141 0.11779348 0.0087269275
0.077820383 0.11818743 0.0087323906
0.078098372 0.11827251 0.0087272022
0.1251981 0.1182573 0.0087539852
0.077906586 0.11868548 0.0087453928
0.078125797 0.1188053 0.0087134531
0.12521581 0.11878933 0.008716749
0.077960752 0.11913212 0.0087742452
0.078190297 0.11923973 0.0087721767
0.1252366 0.11924251 0.0087457336
0.078201957 0.11973185 0.0087760678
0.12524463 0.11973716 0.0087645492
0.077556275 0.12022018 0.0086790221
0.07826452 0.12021725 0.008801545
0.12521371 0.1202516 0.0087543773
0.077710323 0.12073559 0.0087241288
0.07825961 0.12069833 0.0087465923
0.12526193 0.12074866 0.0087539498
0.077819191 0.12122588 0.0087284176
0.078290939 0.12120191 0.0087230625
0.12528519 0.12121972 0.0087150224
0.07787624 0.12169739 0.0087796263
0.078190237 0.12174515 0.0087070977
0.1252874 0.12169558 0.0087215966
0.077937104 0.12226237 0.0087644411
0.078170858 0.12224509 0.0086788628
0.12532602 0.12225846 0.0087502049
0.077851698 0.12270603 0.008716004
0.078150012 0.12274349 0.008728913
0.12533174 0.12277655 0.0087640639
0.078206249 0.12324571 0.0087266928
0.078560248 0.12342855 0.00876093
0.12521853 0.12307405 0.008730825
0.1255219 0.12322515 0.0087028621
0.077959448 0.12357043 0.0088297976
0.078202248 0.12369832 0.0087290704
0.078826949 0.12378317 0.008723977
0.078277729 0.12423444 0.0087293983
0.078771837 0.12423993 0.0087409066
0.079237148 0.12427557 0.0087635415
0.079676382 0.12439649 0.0087402146
0.080198146 0.12441789 0.0087687047
0.080699012 0.12441559 0.0087752314
0.08119373 0.12446371 0.0088427961
0.081719421 0.12447045 0.0087512434
0.082253695 0.12436482 0.0087377522
0.082766324 0.12440348 0.0087614823
0.083237737 0.12435271 0.0087242266
0.083733089 0.12438112 0.008761392
0.084257692 0.12438926 0.0086999834
0.084690116 0.12436251 0.0087361494
0.085266545 0.12436986 0.008711664
0.085744083 0.12434562 0.0087908115
0.086234383 0.12434081 0.0087395376
0.086748146 0.12434367 0.0087749809
0.087262966 0.12436051 0.0087956619
0.087756798 0.12432501 0.0087816818
0.088214345 0.12435166 0.0087171271
0.088746175 0.12429976 0.0086903516
0.089294016 0.12438418 0.0087546613
0.089764878 0.12440815 0.0087864427
0.090242907 0.1244662 0.0087538194
0.091787614 0.1244712 0.0087486831
0.092286073 0.12441706 0.0087239342
0.092765875 0.12438033 0.0087580737
0.093254589 0.12441798 0.0087745562
0.093693703 0.12447757 0.0088629108
0.097763166 0.1244861 0.0086145671
0.098691367 0.12442755 0.0088070836
0.099221952 0.12440977 0.0087858895
0.099707201 0.12439793 0.0088026607
0.100246 0.12436561 0.0088089174
0.10072308 0.12440625 0.0087689795
0.10126778 0.12439086 0.0087254234
0.10175798 0.12433884 0.0087675303
0.10230504 0.12432095 0.008744576
0.10282286 0.1243772 0.0087418649
0.1032339 0.12441576 0.0087657198
0.10371596 0.12443272 0.0087748924
0.10421953 0.12441075 0.0087683927
0.10476872 0.12441039 0.0087665841
0.10529777 0.12443459 0.0087854667
0.10569216 0.12445895 0.0087527987
0.10612845 0.12448551 0.0087003186
0.10785509 0.12443428 0.0089984061
0.10824436 0.12444951 0.0087557593
0.10880456 0.12442912 0.0086709773
0.10913123 0.12449811 0.0086793043
0.11035192 0.12443949 0.0087725949
0.11068779 0.12439194 0.0086550694
0.11124281 0.12444556 0.0086308159
0.11372896 0.12449908 0.0086851008
0.1142575 0.12446962 0.0086934594
0.11476409 0.12442645 0.0087005664
0.11526533 0.12446205 0.0088070827
0.11878168 0.1244982 0.0089818537
0.12342945 0.12448863 0.0087592825
0.12364321 0.12449721 0.0085548414
0.12478657 0.12433656 0.0087581845
0.12503272 0.12428588 0.0087652393
0.078352094 0.12463397 0.0087480694
0.079183355 0.12451199 0.0085932668
0.079741217 0.12468499 0.0087596886
0.080256976 0.1246643 0.0087735578
0.080787495 0.1245763 0.0087951142
0.081103794 0.12457623 0.0087434156
0.081784695 0.12460347 0.008755073
0.08227139 0.12457945 0.0087565528
0.082679622 0.12462889 0.0087517397
0.083163187 0.1245707 0.0088096093
0.084336534 0.12457629 0.0087726135
0.084728323 0.12461924 0.0087144133
0.085247539 0.12476797 0.0087516205
0.085733943 0.12484378 0.008746135
0.086221203 0.12491996 0.0087407092
0.086874798 0.12498356 0.0087616602
0.08775112 0.12452847 0.0088959998
0.088350669 0.12455948 0.0087990947
0.088761672 0.12461234 0.008735992
0.08931724 0.12461846 0.0087338332
0.08981631 0.12459504 0.0087830415
0.090326205 0.12460409 0.0087950835
0.090795614 0.12458781 0.0087892571
0.091201782 0.12459523 0.0087718032
0.09169016 0.12465434 0.0087309042
0.092287757 0.12460693 0.0087720426
0.092732213 0.12460987 0.0087942686
0.093213566 0.12464464 0.0087905107
0.093732707 0.1246272 0.0087210508
0.094265029 0.12464895 0.0087167621
0.094767161 0.12463834 0.0087420745
0.09525381 0.12469968 0.0087705823
0.095756114 0.124699 0.0087641515
0.096183933 0.124623 0.0087576676
0.096745797 0.12463485 0.0087338677
0.097283669 0.12462558 0.0087277489
0.097748198 0.12461701 0.0087615456
0.098295078 0.12463878 0.0087099709
0.098756261 0.12472958 0.0087489365
0.099193811 0.12474369 0.0087262401
0.099665508 0.12469371 0.0087764822
0.10023894 0.12466487 0.008768755
0.10070257 0.12469246 0.0087271649
0.10130185 0.12463673 0.008785123
0.10180768 0.12457387 0.0087562203
0.10226811 0.12458614 0.0087432079
0.10271744 0.12463219 0.0087436652
0.10332178 0.12470932 0.0087188231
0.1037868 0.12475979 0.0087711783
0.1043009 0.12464208 0.0087393001
0.10468782 0.12466342 0.0087527437
0.1052913 0.12473946 0.008720981
0.10575681 0.1247782 0.0087695355
0.10625251 0.12473483 0.0087223276
0.10675034 0.12474391 0.0087400237
0.10728 0.12470574 0.0087797558
0.10773855 0.12474077 0.0087676644
0.10822037 0.12475235 0.008753363
0.1087073 0.12469476 0.0087144161
0.10924771 0.12462985 0.0087940497
0.10972134 0.12459351 0.0087613929
0.1102668 0.12463254 0.0087821754
0.11072581 0.12462766 0.0087534012
0.11125868 0.1246521 0.0087470785
0.11177421 0.12470602 0.0087559596
0.1122705 0.12472174 0.0087674344
0.11276398 0.12476493 0.0087172883
0.11327972 0.12481733 0.0087706083
0.11376482 0.12464223 0.0087803826
0.11425531 0.12468317 0.0088328607
0.1147401 0.12462404 0.0088415649
0.11525569 0.12461583 0.0087159732
0.11571231 0.12458043 0.0087404437
0.11623546 0.12460156 0.0087570809
0.11679608 0.12461898 0.0087731518
0.11725625 0.12463088 0.0087428149
0.1178051 0.124655 0.0087773139
0.1182706 0.12471095 0.0087710964
0.1187735 0.12471177 0.0087347152
0.11924618 0.12468976 0.0087782638
0.11969523 0.12473014 0.0087290928
0.12019149 0.12470026 0.0087304041
0.12079217 0.12472642 0.0087204194
0.12127739 0.12471478 0.008767724
0.12173066 0.12462842 0.0087175108
0.12225996 0.12470017 0.0087573705
0.12274873 0.12465485 0.0087846341
0.12322087 0.1246782 0.0086944904
0.12373783 0.12460998 0.0087490594
0.12424388 0.12456457 0.0087773269
0.12473159 0.1245411 0.0086453678
0.12518826 0.12458058 0.0087490203
0.12572825 0.12463403 0.0087061841
0.12621616 0.12466458 0.0086822463
0.086651467 0.12500197 0.0087951012
0.087065384 0.12506112 0.0087669836
0.099384405 0.12503362 0.0087281624
0.099603049 0.12511086 0.008606609
0.11377994 0.12504108 0.008877336
0.11422332 0.12507463 0.0088030174
0.11468367 0.12515274 0.0087785143
0.11931027 0.12504779 0.0086542759
0.079843104 0.060966991 0.0092367763
0.083488129 0.060979199 0.0091982419
0.083816394 0.060945462 0.0092111658
0.084270395 0.060931824 0.0092763668
0.084740356 0.060938179 0.0092753796
0.085172951 0.060987849 0.0092148557
0.087684095 0.060805846 0.0093010981
0.088209495 0.06080842 0.0092432648
0.088767022 0.060873337 0.0092218742
0.089192279 0.06091442 0.0092668813
0.089640066 0.060956158 0.0092533734
0.090154581 0.06098175 0.0093767289
0.094808027 0.060985461 0.009200057
0.095140621 0.060945783 0.0091576073
0.095629074 0.06097294 0.0092165144
0.096190013 0.060989492 0.0092887143
0.10779337 0.060965843 0.0092385206
0.10814524 0.060959671 0.0091931168
0.077891275 0.061227106 0.0091190748
0.078197263 0.061224815 0.009227708
0.078710966 0.061265573 0.0092265764
0.079266362 0.061402988 0.0092351343
0.07970424 0.061374754 0.0092724599
0.080244549 0.061273418 0.0092550702
0.080767445 0.061299842 0.0092270961
0.081202343 0.06131684 0.0092638768
0.081764378 0.061306722 0.0092351306
0.082268797 0.061192222 0.0092224423
0.082725875 0.061175447 0.0092529804
0.083199456 0.061105829 0.0092710704
0.083734363 0.061104536 0.0092023863
0.084246852 0.061111182 0.0092126401
0.084803425 0.061235715 0.0092482734
0.085294716 0.061222088 0.0092706876
0.085765384 0.06120814 0.0092621641
0.086243421 0.061195273 0.009276676
0.086732037 0.061175652 0.0092370622
0.087229393 0.061157718 0.0092752641
0.087716527 0.061140902 0.0092686033
0.088301487 0.061162692 0.0092813196
0.088795416 0.061198335 0.0092509417
0.089233905 0.061240841 0.0092473263
0.089779288 0.061269064 0.0092253704
0.090289868 0.061245926 0.0092683788
0.090721637 0.061267249 0.0092490241
0.091276042 0.061299127 0.0092377737
0.091757424 0.061277762 0.0092347926
0.092279628 0.06130363 0.0092576118
0.092798814 0.061302163 0.0092374757
0.093238622 0.061276332 0.0092508066
0.093691267 0.061249755 0.0092746988
0.094280437 0.061187375 0.009279863
0.094789043 0.061186157 0.0092729796
0.095220841 0.06122195 0.0092537031
0.095719978 0.061177224 0.0092581669
0.096254818 0.061171021 0.0091903163
0.096758552 0.061151326 0.0092276214
0.097200952 0.061195917 0.0092733931
0.097715832 0.061248537 0.0092044044
0.098307952 0.061336271 0.0092517594
0.098703079 0.061372433 0.0092807626
0.099230766 0.061385144 0.0092415782
0.099758372 0.061378986 0.0091908742
0.10029122 0.061336938 0.0092569329
0.10083011 0.061279044 0.0092489747
0.10126382 0.061298829 0.0092598069
0.10175209 0.061237201 0.0092863133
0.10222381 0.061296433 0.009292596
0.10275203 0.061337445 0.0092788376
0.10324784 0.061368808 0.0092762318
0.10367417 0.061376188 0.0092728781
0.10420308 0.061403453 0.0092134289
0.10476088 0.061416041 0.0092497393
0.10524683 0.061460514 0.0092416266
0.10577233 0.061410762 0.0092732515
0.10631988 0.061412949 0.0092641711
0.10667038 0.061400983 0.0092651853
0.10716335 0.061408117 0.0092331404
0.10774273 0.061365832 0.0091949552
0.10823683 0.061321009 0.0092430227
0.10873681 0.061219443 0.0092249187
0.10922948 0.061299302 0.009236617
0.10972246 0.061370857 0.0092220129
0.11026913 0.061386898 0.0092305178
0.11077708 0.061354466 0.0092480592
0.11126073 0.061321963 0.0092145344
0.1117311 0.061339479 0.0092457477
0.11220392 0.061343569 0.0092187794
0.1127286 0.061382614 0.0092282221
0.11322633 0.061406732 0.0092494031
0.11375 0.061474275 0.0092555368
0.11419031 0.061421487 0.0092901457
0.11471069 0.06146118 0.0091594122
0.11532473 0.06125927 0.0091638342
0.11575405 0.061152648 0.0092550917
0.11623335 0.061201129 0.0093098758
0.11670407 0.061281588 0.009255358
0.11729863 0.061347395 0.0092122126
0.11776832 0.061390866 0.0092528351
0.11815803 0.061371457 0.0092138825
0.11916219 0.061478928 0.0091702184
0.12034559 0.061399736 0.0093002729
0.12078292 0.061402094 0.009211136
0.1213223 0.061399717 0.0093432982
0.12175533 0.061448593 0.0092311958
0.12214544 0.061299924 0.0093707927
0.12340433 0.061450895 0.0092001772
0.12374349 0.061432667 0.0092879087
0.12406438 0.061463997 0.0093245171
0.125429 0.061384372 0.009378368
0.078321323 0.061823916 0.0093031442
0.078842223 0.061761439 0.0092299087
0.079186834 0.061639402 0.0092748292
0.081744626 0.061516766 0.0092113512
0.082283884 0.061571479 0.0092708999
0.082722075 0.061633293 0.0092328265
0.083282426 0.06164607 0.0092487782
0.083738253 0.061573762 0.0092515796
0.084283233 0.061560828 0.0092938272
0.084690377 0.061506774 0.0092954198
0.091090798 0.061514772 0.0092376014
0.094842985 0.061667245 0.0092071034
0.095141798 0.061607316 0.0093380883
0.10378094 0.061549492 0.0091301892
0.10419444 0.061550688 0.009342676
0.10465139 0.061509326 0.0093657952
0.10500391 0.061543342 0.0093420595
0.10892333 0.061548721 0.0094431713
0.11026303 0.061512291 0.009389841
0.1129954 0.061548259 0.0094929645
0.113253 0.061607007 0.0094642043
0.11372155 0.061544433 0.0094056977
0.11439644 0.061614349 0.0094179474
0.11475801 0.061546445 0.0094473641
0.11519763 0.061585743 0.0092859156
0.11573084 0.061613832 0.009221537
0.11625032 0.061556138 0.0092065465
0.11675625 0.061557233 0.0092472658
0.11715647 0.061563686 0.0092075029
0.11771752 0.06159123 0.009301777
0.11817709 0.061572243 0.0092369216
0.11872058 0.061559711 0.0092427162
0.11931401 0.061580449 0.0092765382
0.11976539 0.061618287 0.0092823282
0.12019659 0.061639741 0.009258898
0.12077951 0.061708983 0.0092642875
0.12125472 0.061618943 0.0092204455
0.12179393 0.061634183 0.0092376173
0.12224597 0.061663214 0.0092728697
0.12269381 0.061725877 0.0092579275
0.12320793 0.061729487 0.0092523079
0.12368164 0.061701354 0.0093353735
0.12432116 0.061559517 0.0092356158
0.12472355 0.06163162 0.0092936475
0.12538713 0.061704978 0.0093508773
0.1255447 0.061818387 0.0092260418
0.078413367 0.062288363 0.0092889881
0.078685403 0.062212747 0.0092767775
0.12548825 0.062354516 0.0093120132
0.12554944 0.062210411 0.0092231194
0.078436196 0.062779173 0.0092929024
0.078566946 0.062637933 0.0092232572
0.12519376 0.062810153 0.0092356876
0.1255292 0.062701486 0.0092539582
0.078437515 0.06322021 0.0092604375
0.078508586 0.063491099 0.0093824212
0.12534624 0.063249327 0.0092399679
0.12555677 0.06319651 0.0092872437
0.078380443 0.06374944 0.0092047136
0.078553677 0.063854679 0.0092425998
0.12539597 0.063727513 0.0092059951
0.1256125 0.063684359 0.0092701092
0.078280501 0.064249329 0.0092508411
0.078584343 0.064207524 0.0092183473
0.12546822 0.06418293 0.0092240553
0.12566145 0.064327978 0.0093116527
0.078361206 0.064726762 0.009236725
0.078561544 0.064724997 0.009190659
0.12548633 0.064501241 0.0092414282
0.1255566 0.064794466 0.0092708142
0.078368947 0.065251924 0.009281775
0.078570738 0.065288872 0.0092451135
0.12549011 0.06528277 0.0092677558
0.12557335 0.065196559 0.0092263343
0.078391723 0.06574063 0.0092336284
0.078602403 0.065791667 0.0092869597
0.12549695 0.065761238 0.0092103612
0.12551148 0.06576407 0.0091947941
0.078420587 0.066298425 0.0092719207
0.078602746 0.066255793 0.0092815654
0.12548479 0.06617181 0.0093524009
0.12559369 0.066336222 0.0092507554
0.078457229 0.066782527 0.0092652692
0.078535736 0.066614188 0.0091486536
0.12548123 0.066832244 0.0092934137
0.12558728 0.066715561 0.009267047
0.078368202 0.067299493 0.0092582544
0.078560688 0.067269988 0.009179364
0.12560418 0.067274012 0.009289274
0.078358427 0.067789853 0.0092239529
0.078590743 0.067793295 0.0092483191
0.12562384 0.067753658 0.0092563676
0.078388013 0.068256244 0.0092447679
0.078579545 0.068277523 0.0092509985
0.12567839 0.068301879 0.0092575029
0.078403972 0.068802327 0.0092632007
0.078610525 0.068655677 0.0091877719
0.12569834 0.068839416 0.0092379497
0.078391902 0.069311 0.0092589697
0.078538403 0.069066018 0.0090921037
0.12543127 0.06932199 0.0092097474
0.12568253 0.069210477 0.0092654526
0.078356177 0.069740221 0.0092744073
0.078599006 0.069768317 0.0092091104
0.12564063 0.069750346 0.0092408434
0.078290723 0.070260271 0.0092180558
0.078607328 0.070251241 0.0092769833
0.12549356 0.070260607 0.009196124
0.12561864 0.070262872 0.0092806946
0.078243047 0.070810094 0.0091998773
0.078586027 0.0707637 0.0092186071
0.12533021 0.070866287 0.0091893338
0.12557089 0.070777483 0.0093047842
0.078259252 0.07120838 0.0092653371
0.078609638 0.071337201 0.0092129288
0.12533322 0.071307644 0.0092354696
0.12557341 0.071151972 0.0092871552
0.078303196 0.07169845 0.0091880308
0.078628644 0.071763456 0.0091954162
0.1254216 0.071734525 0.0092373807
0.12572066 0.071746066 0.009245839
0.078341432 0.072286434 0.0092196297
0.078692041 0.072206393 0.0092628822
0.12548545 0.072171062 0.0092593776
0.12570439 0.072241381 0.0092548653
0.078278147 0.07275752 0.0092341118
0.078579918 0.072698399 0.0092824372
0.12543237 0.072507404 0.0094476892
0.12560131 0.072739176 0.0092273401
0.078292839 0.073254816 0.009266817
0.078617796 0.073245674 0.0092029143
0.12562783 0.07320787 0.0092473757
0.07819619 0.073720813 0.0092504043
0.078606561 0.073725715 0.0092075756
0.12560286 0.073706195 0.0092313802
0.077919684 0.074332923 0.0091033513
0.078142561 0.074212864 0.0092459498
0.078566805 0.07426466 0.0092851426
0.12557831 0.074186258 0.0092362277
0.077929169 0.074841931 0.0093092592
0.078270942 0.07477203 0.0092322556
0.078545697 0.074738316 0.0092506381
0.12535922 0.074837156 0.0090823248
0.12557419 0.074737705 0.0092851017
0.077953212 0.075192541 0.009259589
0.078329653 0.07529825 0.009288501
0.078512825 0.075215437 0.0092697265
0.12537126 0.075248085 0.0091473348
0.12555413 0.075229727 0.0092861699
0.077929772 0.075737536 0.009289694
0.078344248 0.075728521 0.0092630228
0.078554645 0.075952142 0.0094017331
0.12539192 0.075721741 0.0091950437
0.12552962 0.07569363 0.0093608256
0.077897325 0.076035231 0.009225728
0.078370668 0.076254115 0.0092403917
0.078512877 0.07646656 0.0094644632
0.12542987 0.07622008 0.0091737155
0.12553608 0.076254122 0.0093045179
0.078341089 0.076750822 0.0092714597
0.12541032 0.076775759 0.0092570838
0.1255134 0.076559313 0.009308124
0.078295119 0.07723403 0.0092631765
0.12544592 0.077272199 0.0092507787
0.077992544 0.077646375 0.0092561468
0.078368783 0.077739596 0.0092624566
0.12540868 0.077704407 0.0092512062
0.12561014 0.077853195 0.0093080997
0.078399196 0.078281656 0.0092841405
0.12538432 0.078248233 0.0092579797
0.12562142 0.078251444 0.0092253666
0.07837639 0.078839928 0.0093182893
0.12533629 0.078763269 0.0092902854
0.12554424 0.078740232 0.0091786841
0.078426674 0.079299144 0.0092543624
0.078523643 0.079480283 0.0094912825
0.12538573 0.079207644 0.0092208562
0.078431711 0.079731517 0.009205455
0.078501575 0.079821005 0.0093888612
0.12532575 0.079699934 0.009271495
0.12553112 0.079791807 0.0092436029
0.078445278 0.080193795 0.0091888234
0.078534819 0.080308944 0.0093225734
0.12525444 0.080208138 0.0092784353
0.12553853 0.080297381 0.00925049
0.078460276 0.080747195 0.0092442958
0.078542732 0.080760092 0.0091867121
0.12524495 0.080769934 0.0092919981
0.12554446 0.080701828 0.0092559997
0.07838697 0.081284329 0.0092275087
0.078592725 0.081331797 0.009327014
0.1252626 0.081235684 0.0092855999
0.12555188 0.081207387 0.0092628868
0.078309298 0.081795536 0.0092932191
0.078662328 0.08179038 0.0092556207
0.12536229 0.08174175 0.0092208562
0.12555781 0.081611849 0.0092683965
0.078231417 0.082264811 0.0093197236
0.078649439 0.08224871 0.0092586996
0.12542813 0.082195118 0.0092971073
0.12550762 0.082469687 0.0092005199
0.077947967 0.082725495 0.0093918461
0.078280382 0.082677372 0.0093049901
0.078651927 0.082708858 0.0092479913
0.12537174 0.082771555 0.009172298
0.12553707 0.082782984 0.0091894586
0.078364544 0.083264127 0.0092816968
0.078643829 0.083174028 0.0092341555
0.12540425 0.083202846 0.0092159556
0.12557904 0.08316838 0.0092377923
0.078291275 0.083817072 0.0093032056
0.07864365 0.083747692 0.0092263781
0.12542799 0.083734907 0.0092599941
0.12561506 0.083713651 0.0092893085
0.078279972 0.084278315 0.0092743253
0.078635879 0.08432623 0.0093281176
0.12542802 0.084281825 0.0092604635
0.12572607 0.084228158 0.0092924284
0.078225076 0.084787704 0.0092947101
0.078652501 0.084786482 0.0093142446
0.12538508 0.084811211 0.0092181712
0.12575403 0.084731713 0.0091938479
0.078242622 0.085232325 0.009265298
0.078669101 0.08524704 0.0093002943
0.12534672 0.085259527 0.009239139
0.12569755 0.085291132 0.0091853999
0.078291565 0.085747853 0.0092430646
0.078631736 0.085734345 0.0092590535
0.12536782 0.085681543 0.0092766341
0.1255893 0.085744001 0.009281666
0.078293428 0.086247303 0.0092366608
0.07860174 0.086212918 0.0092922105
0.12537096 0.086232163 0.0092621194
0.12554392 0.08614596 0.0093008932
0.078302965 0.086812504 0.0092689674
0.078643799 0.086745307 0.0093305036
0.12546676 0.086753987 0.0092952168
0.12560454 0.086708568 0.0094612064
0.078329556 0.087278932 0.0092452085
0.078743175 0.087352723 0.0093615893
0.12547329 0.087185971 0.0092555899
0.12562941 0.087275527 0.0092578474
0.078270622 0.087787487 0.0092400918
0.078833997 0.08783333 0.0091525754
0.12548079 0.087755106 0.0093148416
0.12566863 0.087795496 0.00924729
0.078261584 0.088245124 0.0092382887
0.078840345 0.088342011 0.0092033204
0.125471 0.088313743 0.0092676729
0.12565593 0.088269837 0.0092520714
0.078260958 0.088790715 0.0092877457
0.078822926 0.088860258 0.0092617534
0.12547393 0.088857047 0.0092395991
0.12563576 0.088731527 0.0092434697
0.078255616 0.089283884 0.0092970291
0.078767113 0.089180388 0.0093492772
0.12547719 0.089286223 0.0092355628
0.12565428 0.089223437 0.0093062809
0.07825616 0.089841105 0.0092611564
0.078779548 0.089647241 0.0092392582
0.12547077 0.089743674 0.0092919907
0.12570028 0.089751698 0.0092153633
0.078255869 0.090296112 0.0092250323
0.078721039 0.09018451 0.0091954824
0.12548015 0.090178601 0.0092095695
0.12565763 0.090263955 0.0092865024
0.077992149 0.090878427 0.0094788419
0.078266442 0.090781845 0.009254694
0.078577243 0.090625748 0.00928206
0.12546785 0.090742551 0.0092180837
0.12567031 0.090742826 0.0092502646
0.077997595 0.091125704 0.0094527826
0.078291714 0.091262572 0.0092661306
0.12546691 0.091198646 0.0092348475
0.12558013 0.091212571 0.00919847
0.078263424 0.091739371 0.0092248106
0.12544377 0.091757059 0.0092773177
0.12564932 0.091711834 0.0091944328
0.078239143 0.092281759 0.00926199
0.12544692 0.092281111 0.0092897024
0.12583342 0.092255279 0.0092125656
0.078228347 0.092717007 0.0092650419
0.078587122 0.092951894 0.0093046091
0.12538855 0.092780463 0.009197182
0.12577352 0.092740342 0.0092522046
0.078186616 0.093243234 0.0093112849
0.078546785 0.093257427 0.0092456071
0.12530953 0.093303032 0.0092698848
0.12570146 0.093271136 0.009232901
0.078188904 0.09374316 0.0092601869
0.078540534 0.093678437 0.0091951089
0.12530819 0.093741655 0.0092968382
0.1256064 0.093730383 0.0092630973
0.078221805 0.094309986 0.0092354091
0.12527381 0.094238304 0.0092758248
0.12562364 0.094271816 0.0092082061
0.078245468 0.094790071 0.0092701763
0.12536488 0.09479329 0.0092687784
0.12563574 0.094719172 0.0091784624
0.077958986 0.095341012 0.0092884246
0.078234643 0.095248081 0.0092209671
0.1253964 0.095250197 0.0092393067
0.12563568 0.095210433 0.0092598144
0.077884786 0.095682651 0.0092027057
0.078286335 0.095753841 0.0092077572
0.12537459 0.095750712 0.0092265205
0.12559403 0.095715135 0.0092816027
0.078268133 0.096239708 0.0092345802
0.12540039 0.096091807 0.0092146108
0.12554792 0.096244991 0.0092639513
0.077971533 0.096841574 0.009237512
0.07829681 0.096759699 0.0092443544
0.12547417 0.09667965 0.0093057798
0.12558097 0.096724659 0.0092306565
0.077974655 0.097225271 0.0091833677
0.078322992 0.097264126 0.0092868544
0.078511037 0.097042479 0.0091036391
0.12541397 0.097385682 0.0091709616
0.12555154 0.097241141 0.0092600081
0.077912219 0.097681582 0.0092331544
0.078391373 0.097767673 0.0092875408
0.12538762 0.097762562 0.0092307068
0.1255489 0.097724736 0.0092041539
0.077822559 0.098189719 0.009278628
0.078395791 0.098268621 0.0092480583
0.12543099 0.098211095 0.0091891494
0.12552832 0.098175265 0.0092788301
0.07780727 0.098631434 0.0092281224
0.078364745 0.098742858 0.0092749391
0.12535019 0.098742992 0.0092228698
0.12550776 0.098625563 0.0093534281
0.077886894 0.099418603 0.0091622192
0.078289628 0.099278286 0.0092162816
0.078521281 0.099313118 0.0093002794
0.12533751 0.099195756 0.0092517566
0.12550996 0.099227399 0.0092977993
0.077907898 0.09979818 0.0091835167
0.078297608 0.099778958 0.0092810262
0.078510545 0.099547625 0.0091839815
0.12530164 0.099727497 0.0092271343
0.078235462 0.10031214 0.0092961658
0.078558147 0.10020347 0.0092491135
0.12532938 0.1002683 0.0092647262
0.078223296 0.10078224 0.0092641376
0.078516252 0.10083546 0.0091572795
0.12532915 0.10078544 0.0092912279
0.078249089 0.10130364 0.0092557063
0.1253657 0.1012445 0.0092457356
0.07820861 0.10176501 0.0092591122
0.12533176 0.10173336 0.0092124324
0.07820335 0.1022342 0.0092364959
0.12533489 0.10224055 0.0092220893
0.078202002 0.10273942 0.0093042264
0.12532184 0.10279122 0.0092496313
0.078203276 0.1032674 0.0092382263
0.12529846 0.10324768 0.0092744241
0.078218453 0.10381363 0.0092737135
0.12528853 0.10369388 0.0091918502
0.078210756 0.10428201 0.0092504639
0.125269 0.10426255 0.0092812106
0.078236572 0.10475755 0.0092645762
0.12524469 0.10476597 0.0093008541
0.078229241 0.10526087 0.0092652766
0.12525439 0.10522527 0.0092657832
0.078223027 0.1057649 0.0092924163
0.12529185 0.10572717 0.00927696
0.077989131 0.10632236 0.0094372258
0.078224532 0.1062225 0.009232319
0.12525384 0.10621325 0.0092279585
0.077969633 0.10667372 0.0093212593
0.078292757 0.10681987 0.0091762086
0.12529084 0.10673542 0.0092350291
0.077907689 0.10722759 0.0092427451
0.078265145 0.10728602 0.0092959665
0.12529947 0.10722528 0.0092806751
0.12550183 0.10735912 0.0090911742
0.077882074 0.10784207 0.0093245897
0.078213975 0.10775717 0.0092151295
0.12528118 0.10774277 0.0092781726
0.12550883 0.10794722 0.0091369823
0.077847041 0.1083094 0.0093259215
0.078191943 0.10828213 0.0092511931
0.12527472 0.1083158 0.0092665441
0.07783743 0.1087787 0.009319704
0.07817629 0.10873804 0.0092487913
0.12527876 0.10879116 0.009277856
0.125516 0.10853439 0.0091827735
0.077880666 0.10925443 0.0092897648
0.07817781 0.10922918 0.00927296
0.12526153 0.10924055 0.0092511531
0.077892996 0.10973769 0.0092867706
0.078205906 0.10973039 0.0092685781
0.125291 0.10972107 0.0092564188
0.077918552 0.11018878 0.0092746168
0.078193396 0.11022849 0.0092847813
0.125292 0.11026651 0.0092674261
0.077979974 0.11072888 0.0092773736
0.078250572 0.11074927 0.0091925673
0.12526773 0.11074597 0.0092586409
0.077976458 0.11136373 0.009252429
0.078230985 0.11118126 0.0092082368
0.12529343 0.11120222 0.0092368266
0.077978626 0.1119018 0.0091885841
0.078226015 0.11170338 0.0092237238
0.12525536 0.11177867 0.0092783803
0.077975504 0.11220842 0.0091762608
0.07825055 0.11222552 0.0092029152
0.078560784 0.1122934 0.0093641644
0.12526563 0.11226837 0.0092081157
0.077956706 0.11278522 0.0092036678
0.078163922 0.1127223 0.0092534618
0.078595459 0.11268778 0.0092210993
0.12526919 0.11273983 0.0092395097
0.077948682 0.1132945 0.0093102269
0.078170568 0.11322032 0.0091941208
0.078694567 0.11302172 0.0093737887
0.12523031 0.1132437 0.0092912428
0.077950902 0.11382077 0.0093068508
0.078111544 0.11379111 0.009227531
0.12525298 0.11371137 0.0092524448
0.077964477 0.11428721 0.0092033679
0.07809595 0.11428867 0.0092184618
0.12525664 0.11419929 0.0092282817
0.12550268 0.11448122 0.0092450408
0.077959038 0.11480934 0.0091953874
0.078121558 0.11470646 0.0092942445
0.12518547 0.11475547 0.0092587294
0.12554406 0.11481927 0.0092317695
0.077962779 0.11509489 0.0091253715
0.07814952 0.11520609 0.0092704296
0.12527508 0.11525503 0.0092434911
0.12555429 0.11542314 0.0091851875
0.077849329 0.11583138 0.0092982408
0.078160882 0.11568437 0.0092313606
0.12516978 0.11573993 0.0092088925
0.12553078 0.11568169 0.0094722863
0.077887326 0.11625409 0.0092508942
0.078185096 0.11621246 0.0092525259
0.12520882 0.11625168 0.009243248
0.077921771 0.11676951 0.0092321318
0.078186639 0.1167852 0.0092492439
0.12518361 0.11673602 0.0092235859
0.077917971 0.11727495 0.0092875995
0.078153759 0.11727329 0.0092835529
0.12517624 0.11726745 0.0092713051
0.077842973 0.11777386 0.0092676645
0.078144193 0.11773039 0.0093020555
0.1251938 0.11773769 0.0092540206
0.077876933 0.1182472 0.0092928829
0.07812281 0.11824702 0.0092969593
0.12518197 0.11827874 0.009254491
0.077984206 0.11867625 0.0093010655
0.078120656 0.11878736 0.0092761992
0.12521948 0.11879902 0.0092935208
0.078165688 0.11925344 0.0092982315
0.12522672 0.11922984 0.0092065372
0.077962913 0.11974028 0.0091977362
0.078168772 0.11974776 0.0092771044
0.12523854 0.11973861 0.0092190085
0.078189529 0.12022198 0.0092851892
0.12524906 0.12022728 0.0093157403
0.077499822 0.12052069 0.0093098981
0.077617094 0.12077008 0.0091707269
0.078235611 0.1207021 0.0092714885
0.12521884 0.12074342 0.0092742089
0.077709466 0.12127021 0.0092191175
0.078280218 0.12119529 0.0092602689
0.12523028 0.12125366 0.0092739612
0.077825606 0.12169783 0.0092304535
0.078227073 0.12174172 0.009181546
0.12528254 0.1216536 0.0092891864
