# .PCD v0.7 - Point Cloud Data file format
VERSION 0.7
FIELDS x y z
SIZE 4 4 4
TYPE F F F
COUNT 1 1 1
WIDTH 1426
HEIGHT 1
VIEWPOINT 0 0 0 1 0 0 0
POINTS 1426
DATA ascii
-0.02375 -0.031750001 0.0144585
-0.02375 -0.031750001 0.014433
-0.02375 -0.031750001 0.0144075
-0.02375 -0.031750001 0.014381999
-0.02375 -0.031750001 0.0143565
-0.02375 -0.031750001 0.014331
-0.02375 -0.031750001 0.014305499
-0.02375 -0.031750001 0.01428
-0.02375 -0.031750001 0.0142545
-0.02375 -0.031750001 0.014229
-0.02375 -0.031750001 0.014203499
-0.02375 -0.031750001 0.014178
-0.02375 -0.031750001 0.0141525
-0.02375 -0.031750001 0.014126999
-0.02375 -0.031750001 0.0141015
-0.02375 -0.031750001 0.014076
-0.02375 -0.031750001 0.0140505
-0.02375 -0.031750001 0.014025
-0.02375 -0.031750001 0.013999499
-0.02375 -0.031750001 0.013974
-0.02375 -0.031750001 0.0139485
-0.02375 -0.031750001 0.013923
-0.02375 -0.031750001 0.0138975
-0.02375 -0.031750001 0.013871999
-0.02375 -0.031750001 0.0138465
-0.02375 -0.031750001 0.013820999
-0.02375 -0.031750001 0.0137955
-0.02375 -0.031750001 0.01377
-0.02375 -0.031750001 0.0137445
-0.02375 -0.031750001 0.013718999
-0.02375 -0.031750001 0.0136935
-0.02375 -0.031750001 0.013668
-0.02375 -0.031750001 0.013642499
-0.02375 -0.031750001 0.013617001
-0.02375 -0.031750001 0.0135915
-0.02375 -0.031750001 0.013565999
-0.02375 -0.031750001 0.0135405
-0.02375 -0.031750001 0.013515
-0.02375 -0.031750001 0.0134895
-0.02375 -0.031750001 0.013464
-0.02375 -0.031750001 0.0134385
-0.02375 -0.031750001 0.013413
-0.02375 -0.031750001 0.013387499
-0.02375 -0.031750001 0.013362
-0.02375 -0.031750001 0.0133365
-0.02375 -0.031750001 0.013311
-0.02375 -0.031750001 0.0132855
-0.02375 -0.031750001 0.013259999
-0.02375 -0.031750001 0.0132345
-0.02375 -0.031750001 0.013209
-0.02375 -0.031750001 0.0131835
-0.02375 -0.031750001 0.013157999
-0.02375 -0.031750001 0.0131325
-0.02375 -0.031750001 0.013107
-0.02375 -0.031750001 0.013081499
-0.02375 -0.031750001 0.013055999
-0.02375 -0.031750001 0.0130305
-0.02375 -0.031750001 0.013005
-0.02375 -0.031750001 0.012979499
-0.02375 -0.031750001 0.012954
-0.02375 -0.031750001 0.0129285
-0.02375 -0.031750001 0.012902999
-0.02375 -0.031750001 0.0128775
-0.02375 -0.031750001 0.012852
-0.02375 -0.031750001 0.0128265
-0.02375 -0.031750001 0.012801
-0.02375 -0.031750001 0.012775499
-0.02375 -0.031750001 0.01275
-0.02375 -0.031750001 0.0127245
-0.02375 -0.031750001 0.012699
-0.02375 -0.031750001 0.0126735
-0.02375 -0.031750001 0.012648
-0.02375 -0.031750001 0.0126225
-0.02375 -0.031750001 0.012596999
-0.02375 -0.031750001 0.0125715
-0.02375 -0.031750001 0.012546
-0.02375 -0.031750001 0.0125205
-0.02375 -0.031750001 0.012494999
-0.02375 -0.031750001 0.0124695
-0.02375 -0.031750001 0.012444
-0.02375 -0.031750001 0.012418499
-0.02375 -0.031750001 0.012393001
-0.02375 -0.031750001 0.0123675
-0.02375 -0.031750001 0.012341999
-0.02375 -0.031750001 0.0123165
-0.02375 -0.031750001 0.012291
-0.02375 -0.031750001 0.0122655
-0.02375 -0.031750001 0.012239999
-0.02375 -0.031750001 0.0122145
-0.02375 -0.031750001 0.012189
-0.02375 -0.031750001 0.012163499
-0.02375 -0.031750001 0.012138
-0.02375 -0.031750001 0.0121125
-0.02375 -0.031750001 0.012087
-0.02375 -0.031750001 0.0120615
-0.02375 -0.031750001 0.012035999
-0.02375 -0.031750001 0.0120105
-0.02375 -0.031750001 0.011985
-0.02375 -0.031750001 0.0119595
-0.02375 -0.031750001 0.011933999
-0.02375 -0.031750001 0.0119085
-0.02375 -0.031750001 0.011883
-0.02375 -0.031750001 0.011857499
-0.02375 -0.031750001 0.011832001
-0.02375 -0.031750001 0.0118065
-0.02375 -0.031750001 0.011781
-0.02375 -0.031750001 0.011755499
-0.02375 -0.031750001 0.01173
-0.02375 -0.031750001 0.0117045
-0.02375 -0.031750001 0.011678999
-0.02375 -0.031750001 0.0116535
-0.02375 -0.031750001 0.011628
-0.02375 -0.031750001 0.0116025
-0.02375 -0.031750001 0.011577
-0.02375 -0.031750001 0.0115515
-0.02375 -0.031750001 0.011526
-0.02375 -0.031750001 0.0115005
-0.02375 -0.031750001 0.011475
-0.02375 -0.031750001 0.0114495
-0.02375 -0.031750001 0.011423999
-0.02375 -0.031750001 0.0113985
-0.02375 -0.031750001 0.011372999
-0.02375 -0.031750001 0.0113475
-0.02375 -0.031750001 0.011322
-0.02375 -0.031750001 0.0112965
-0.02375 -0.031750001 0.011270999
-0.02375 -0.031750001 0.0112455
-0.02375 -0.031750001 0.01122
-0.02375 -0.031750001 0.011194499
-0.02375 -0.031750001 0.011169001
-0.02375 -0.031750001 0.0111435
-0.02375 -0.031750001 0.011117999
-0.02375 -0.031750001 0.0110925
-0.02375 -0.031750001 0.011067
-0.02375 -0.031750001 0.0110415
-0.02375 -0.031750001 0.011016
-0.02375 -0.031750001 0.0109905
-0.02375 -0.031750001 0.010965
-0.02375 -0.031750001 0.010939499
-0.02375 -0.031750001 0.010914
-0.02375 -0.031750001 0.0108885
-0.02375 -0.031750001 0.010863
-0.02375 -0.031750001 0.0108375
-0.02375 -0.031750001 0.010811999
-0.02375 -0.031750001 0.0107865
-0.02375 -0.031750001 0.010761
-0.02375 -0.031750001 0.0107355
-0.02375 -0.031750001 0.010709999
-0.02375 -0.031750001 0.0106845
-0.02375 -0.031750001 0.010659
-0.02375 -0.031750001 0.010633499
-0.02375 -0.031750001 0.010608
-0.02375 -0.031750001 0.0105825
-0.02375 -0.031750001 0.010557
-0.02375 -0.031750001 0.010531499
-0.02375 -0.031750001 0.010506
-0.02375 -0.031750001 0.0104805
-0.02375 -0.031750001 0.010454999
-0.02375 -0.031750001 0.0104295
-0.02375 -0.031750001 0.010404
-0.02375 -0.031750001 0.0103785
-0.02375 -0.031750001 0.010353
-0.02375 -0.031750001 0.0103275
-0.02375 -0.031750001 0.010302
-0.02375 -0.031750001 0.0102765
-0.02375 -0.031750001 0.010251
-0.02375 -0.031750001 0.0102255
-0.02375 -0.031750001 0.0102
-0.02375 -0.031750001 0.0101745
-0.02375 -0.031750001 0.010148999
-0.02375 -0.031750001 0.0101235
-0.02375 -0.031750001 0.010098
-0.02375 -0.031750001 0.0100725
-0.02375 -0.031750001 0.010047
-0.02375 -0.031750001 0.0100215
-0.02375 -0.031750001 0.0099959997
-0.02375 -0.031750001 0.0099704992
-0.02375 -0.031750001 0.0099450005
-0.02375 -0.031750001 0.0099195
-0.02375 -0.031750001 0.0098939994
-0.02375 -0.031750001 0.0098685008
-0.02375 -0.031750001 0.0098429993
-0.02375 -0.031750001 0.0098174997
-0.02375 -0.031750001 0.0097920001
-0.02375 -0.031750001 0.0097665004
-0.02375 -0.031750001 0.009740999
-0.02375 -0.031750001 0.0097154994
-0.02375 -0.031750001 0.0096899997
-0.02375 -0.031750001 0.0096645001
-0.02375 -0.031750001 0.0096389987
-0.02375 -0.031750001 0.0096135009
-0.02375 -0.031750001 0.0095879994
-0.02375 -0.031750001 0.0095624998
-0.02375 -0.031750001 0.0095370002
-0.02375 -0.031750001 0.0095115006
-0.02375 -0.031750001 0.0094859991
-0.02375 -0.031750001 0.0094604995
-0.02375 -0.031750001 0.0094349999
-0.02375 -0.031750001 0.0094095003
-0.02375 -0.031750001 0.0093840007
-0.02375 -0.031750001 0.0093584992
-0.02375 -0.031750001 0.0093329996
-0.02375 -0.031750001 0.0093075
-0.02375 -0.031750001 0.0092819985
-0.02375 -0.031750001 0.0092564989
-0.02375 -0.031750001 0.0092310011
-0.02375 -0.031750001 0.0092054997
-0.02375 -0.031750001 0.0091800001
-0.02375 -0.031750001 0.0091545004
-0.02375 -0.031750001 0.009128999
-0.02375 -0.031750001 0.0091034994
-0.02375 -0.031750001 0.0090779997
-0.02375 -0.031750001 0.0090525001
-0.02375 -0.031750001 0.0090270005
-0.02375 -0.031750001 0.0090015009
-0.02375 -0.031750001 0.0089759994
-0.02375 -0.031750001 0.0089504998
-0.02375 -0.031750001 0.0089250002
-0.02375 -0.031750001 0.0088994987
-0.02375 -0.031750001 0.008874001
-0.02375 -0.031750001 0.0088485014
-0.02375 -0.031750001 0.0088229999
-0.02375 -0.031750001 0.0087975003
-0.02375 -0.031750001 0.0087719988
-0.02375 -0.031750001 0.0087464992
-0.02375 -0.031750001 0.0087209996
-0.02375 -0.031750001 0.0086954981
-0.02375 -0.031750001 0.0086700004
-0.02375 -0.031750001 0.0086445007
-0.02375 -0.031750001 0.0086189993
-0.02375 -0.031750001 0.0085934997
-0.02375 -0.031750001 0.008568
-0.02375 -0.031750001 0.0085424986
-0.02375 -0.031750001 0.008516999
-0.02375 -0.031750001 0.0084915012
-0.02375 -0.031750001 0.0084659997
-0.02375 -0.031750001 0.0084405001
-0.02375 -0.031750001 0.0084150005
-0.02375 -0.031750001 0.008389499
-0.02375 -0.031750001 0.0083639994
-0.02375 -0.031750001 0.0083384998
-0.02375 -0.031750001 0.0083129983
-0.02375 -0.031750001 0.0082875006
-0.02375 -0.031750001 0.008262001
-0.02375 -0.031750001 0.0082364995
-0.02375 -0.031750001 0.0082109999
-0.02375 -0.031750001 0.0081855003
-0.02375 -0.031750001 0.0081599988
-0.02375 -0.031750001 0.0081344992
-0.02375 -0.031750001 0.0081090014
-0.02375 -0.031750001 0.0080835
-0.02375 -0.031750001 0.0080580004
-0.02375 -0.031750001 0.0080325007
-0.02375 -0.031750001 0.0080069993
-0.02375 -0.031750001 0.0079814997
-0.02375 -0.031750001 0.007956
-0.02375 -0.031750001 0.0079305004
-0.02375 -0.031750001 0.0079050008
-0.02375 -0.031750001 0.0078794993
-0.02375 -0.031750001 0.0078539997
-0.02375 -0.031750001 0.0078285001
-0.02375 -0.031750001 0.0078029986
-0.02375 -0.031750001 0.007777499
-0.02375 -0.031750001 0.0077519994
-0.02375 -0.031750001 0.0077264998
-0.02375 -0.031750001 0.0077010002
-0.02375 -0.031750001 0.0076755006
-0.02375 -0.031750001 0.0076499991
-0.02375 -0.031750001 0.0076244995
-0.02375 -0.031750001 0.0075989999
-0.02375 -0.031750001 0.0075734984
-0.02375 -0.031750001 0.0075480007
-0.02375 -0.031750001 0.0075225011
-0.02375 -0.031750001 0.0074969996
-0.02375 -0.031750001 0.0074715
-0.02375 -0.031750001 0.0074460004
-0.02375 -0.031750001 0.0074204989
-0.02375 -0.031750001 0.0073949993
-0.02375 -0.031750001 0.0073695015
-0.02375 -0.031750001 0.007344
-0.02375 -0.031750001 0.0073185004
-0.02375 -0.031750001 0.0072930008
-0.02375 -0.031750001 0.0072674993
-0.02375 -0.031750001 0.0072419997
-0.02375 -0.031750001 0.0072165001
-0.02375 -0.031750001 0.0071909986
-0.02375 -0.031750001 0.0071655009
-0.02375 -0.031750001 0.0071399994
-0.02375 -0.031750001 0.0071144998
-0.02375 -0.031750001 0.0070890002
-0.02375 -0.031750001 0.0070634987
-0.02375 -0.031750001 0.0070379991
-0.02375 -0.031750001 0.0070124995
-0.02375 -0.031750001 0.0069869999
-0.02375 -0.031750001 0.0069615003
-0.02375 -0.031750001 0.0069360007
-0.02375 -0.031750001 0.0069104992
-0.02375 -0.031750001 0.0068849996
-0.02375 -0.031750001 0.0068595
-0.02375 -0.031750001 0.0068339985
-0.02375 -0.031750001 0.0068085007
-0.02375 -0.031750001 0.0067830011
-0.02375 -0.031750001 0.0067574997
-0.02375 -0.031750001 0.006732
-0.02375 -0.031750001 0.0067065004
-0.02375 -0.031750001 0.006680999
-0.02375 -0.031750001 0.0066554993
-0.02375 -0.031750001 0.0066299997
-0.02375 -0.031750001 0.0066045001
-0.02375 -0.031750001 0.0065790005
-0.02375 -0.031750001 0.0065535009
-0.02375 -0.031750001 0.0065279994
-0.02375 -0.031750001 0.0065024998
-0.02375 -0.031750001 0.0064770002
-0.02375 -0.031750001 0.0064514987
-0.02375 -0.031750001 0.006426001
-0.02375 -0.031750001 0.0064005014
-0.02375 -0.031750001 0.0063749999
-0.02375 -0.031750001 0.0063495003
-0.02375 -0.031750001 0.0063240007
-0.02375 -0.031750001 0.0062984992
-0.02375 -0.031750001 0.0062729996
-0.02375 -0.031750001 0.0062474981
-0.02375 -0.031750001 0.0062220003
-0.02375 -0.031750001 0.0061965007
-0.02375 -0.031750001 0.0061709993
-0.02375 -0.031750001 0.0061454996
-0.02375 -0.031750001 0.00612
-0.02375 -0.031750001 0.0060944986
-0.02375 -0.031750001 0.0060689989
-0.02375 -0.031750001 0.0060435012
-0.02375 -0.031750001 0.0060179997
-0.02375 -0.031750001 0.0059925001
-0.02375 -0.031750001 0.0059670005
-0.02375 -0.031750001 0.005941499
-0.02375 -0.031750001 0.0059159994
-0.02375 -0.031750001 0.0058904998
-0.02375 -0.031750001 0.0058650002
-0.02375 -0.031750001 0.0058395006
-0.02375 -0.031750001 0.005814001
-0.02375 -0.031750001 0.0057884995
-0.02375 -0.031750001 0.0057629999
-0.02375 -0.031750001 0.0057375003
-0.02375 -0.031750001 0.0057119988
-0.02375 -0.031750001 0.0056864992
-0.02375 -0.031750001 0.0056610014
-0.02375 -0.031750001 0.0056355
-0.02375 -0.031750001 0.0056100003
-0.02375 -0.031750001 0.0055845007
-0.02375 -0.031750001 0.0055589993
-0.02375 -0.031750001 0.0055334996
-0.02375 -0.031750001 0.0055079982
-0.02375 -0.031750001 0.0054825004
-0.02375 -0.031750001 0.0054570008
-0.02375 -0.031750001 0.0054314993
-0.02375 -0.031750001 0.0054059997
-0.02375 -0.031750001 0.0053805001
-0.02375 -0.031750001 0.0053549986
-0.02375 -0.031750001 0.005329499
-0.02375 -0.031750001 0.0053040013
-0.02375 -0.031750001 0.0052784998
-0.02375 -0.031750001 0.0052530002
-0.02375 -0.031750001 0.0052275006
-0.02375 -0.031750001 0.0052019991
-0.02375 -0.031750001 0.0051764995
-0.02375 -0.031750001 0.0051509999
-0.02375 -0.031750001 0.0051254984
-0.02375 -0.031750001 0.0051000006
-0.02375 -0.031750001 0.005074501
-0.02375 -0.031750001 0.0050489996
-0.02375 -0.031750001 0.0050235
-0.02375 -0.031750001 0.0049980003
-0.02375 -0.031750001 0.0049724989
-0.02375 -0.031750001 0.0049469993
-0.02375 -0.031750001 0.0049215015
-0.02375 -0.031750001 0.004896
-0.02375 -0.031750001 0.0048705004
-0.02375 -0.031750001 0.0048450008
-0.02375 -0.031750001 0.0048194993
-0.02375 -0.031750001 0.0047939997
-0.02375 -0.031750001 0.0047685001
-0.02375 -0.031750001 0.0047429986
-0.02375 -0.031750001 0.0047175009
-0.02375 -0.031750001 0.0046920013
-0.02375 -0.031750001 0.0046664998
-0.02375 -0.031750001 0.0046410002
-0.02375 -0.031750001 0.0046154987
-0.02375 -0.031750001 0.0045899991
-0.02375 -0.031750001 0.0045644995
-0.02375 -0.031750001 0.0045389999
-0.02375 -0.031750001 0.0045135003
-0.02375 -0.031750001 0.0044880006
-0.02375 -0.031750001 0.0044624992
-0.02375 -0.031750001 0.0044369996
-0.02375 -0.031750001 0.0044114999
-0.02375 -0.031750001 0.0043859985
-0.02375 -0.031750001 0.0043605007
-0.02375 -0.031750001 0.0043350011
-0.02375 -0.031750001 0.0043094996
-0.02375 -0.031750001 0.004284
-0.02375 -0.031750001 0.0042585004
-0.02375 -0.031750001 0.0042329989
-0.02375 -0.031750001 0.0042074993
-0.02375 -0.031750001 0.0041819997
-0.02375 -0.031750001 0.0041565001
-0.02375 -0.031750001 0.0041310005
-0.02375 -0.031750001 0.0041055009
-0.02375 -0.031750001 0.0040799994
-0.02375 -0.031750001 0.0040544998
-0.02375 -0.031750001 0.0040290002
-0.02375 -0.031750001 0.0040034987
-0.02375 -0.031750001 0.003978001
-0.02375 -0.031750001 0.0039525013
-0.02375 -0.031750001 0.0039269999
-0.02375 -0.031750001 0.0039015003
-0.02375 -0.031750001 0.0038759988
-0.02375 -0.031750001 0.0038504992
-0.02375 -0.031750001 0.0038249996
-0.02375 -0.031750001 0.0037994999
-0.02375 -0.031750001 0.0037740003
-0.02375 -0.031750001 0.0037485007
-0.02375 -0.031750001 0.0037229992
-0.02375 -0.031750001 0.0036974996
-0.02375 -0.031750001 0.003672
-0.02375 -0.031750001 0.0036464985
-0.02375 -0.031750001 0.0036209989
-0.02375 -0.031750001 0.0035955012
-0.02375 -0.031750001 0.0035699997
-0.02375 -0.031750001 0.0035445001
-0.02375 -0.031750001 0.0035190005
-0.02375 -0.031750001 0.003493499
-0.02375 -0.031750001 0.0034679994
-0.02375 -0.031750001 0.0034424998
-0.02375 -0.031750001 0.0034170002
-0.02375 -0.031750001 0.0033915006
-0.02375 -0.031750001 0.003366001
-0.02375 -0.031750001 0.0033404995
-0.02375 -0.031750001 0.0033149999
-0.02375 -0.031750001 0.0032895003
-0.02375 -0.031750001 0.0032639988
-0.02375 -0.031750001 0.003238501
-0.02375 -0.031750001 0.0032130014
-0.02375 -0.031750001 0.0031874999
-0.02375 -0.031750001 0.0031620003
-0.02375 -0.031750001 0.0031365007
-0.02375 -0.031750001 0.0031109992
-0.02375 -0.031750001 0.0030854996
-0.02375 -0.031750001 0.00306
-0.02375 -0.031750001 0.0030345004
-0.02375 -0.031750001 0.0030090008
-0.02375 -0.031750001 0.0029834993
-0.02375 -0.031750001 0.0029579997
-0.02375 -0.031750001 0.0029325001
-0.02375 -0.031750001 0.0029069986
-0.02375 -0.031750001 0.002881499
-0.02375 -0.031750001 0.0028560013
-0.02375 -0.031750001 0.0028304998
-0.02375 -0.031750001 0.0028050002
-0.02375 -0.031750001 0.0027795006
-0.02375 -0.031750001 0.0027539991
-0.02375 -0.031750001 0.0027284995
-0.02375 -0.031750001 0.0027029999
-0.02375 -0.031750001 0.0026774984
-0.02375 -0.031750001 0.0026520006
-0.02375 -0.031750001 0.002626501
-0.02375 -0.031750001 0.0026009995
-0.02375 -0.031750001 0.0025754999
-0.02375 -0.031750001 0.0025500003
-0.02375 -0.031750001 0.0025244989
-0.02375 -0.031750001 0.0024989992
-0.02375 -0.031750001 0.0024735015
-0.02375 -0.031750001 0.002448
-0.02375 -0.031750001 0.0024225004
-0.02375 -0.031750001 0.0023970008
-0.02375 -0.031750001 0.0023714993
-0.02375 -0.031750001 0.0023459997
-0.02375 -0.031750001 0.0023205001
-0.02375 -0.031750001 0.0022950005
-0.02375 -0.031750001 0.0022695009
-0.02375 -0.031750001 0.0022439994
-0.02375 -0.031750001 0.0022184998
-0.02375 -0.031750001 0.0021930002
-0.02375 -0.031750001 0.0021674987
-0.02375 -0.031750001 0.0021419991
-0.02375 -0.031750001 0.0021164995
-0.02375 -0.031750001 0.0020909999
-0.02375 -0.031750001 0.0020655002
-0.02375 -0.031750001 0.0020400006
-0.02375 -0.031750001 0.0020144992
-0.02375 -0.031750001 0.0019889995
-0.02375 -0.031750001 0.0019634999
-0.02375 -0.031750001 0.0019379985
-0.02375 -0.031750001 0.0019125007
-0.02375 -0.031750001 0.0018870011
-0.02375 -0.031750001 0.0018614996
-0.02375 -0.031750001 0.001836
-0.02375 -0.031750001 0.0018105004
-0.02375 -0.031750001 0.0017849989
-0.02375 -0.031750001 0.0017594993
-0.02375 -0.031750001 0.0017340016
-0.02375 -0.031750001 0.0017085001
-0.02375 -0.031750001 0.0016830005
-0.02375 -0.031750001 0.0016575009
-0.02375 -0.031750001 0.0016319994
-0.02375 -0.031750001 0.0016064998
-0.02375 -0.031750001 0.0015810002
-0.02375 -0.031750001 0.0015554987
-0.02375 -0.031750001 0.0015300009
-0.02375 -0.031750001 0.0015045013
-0.02375 -0.031750001 0.0014789999
-0.02375 -0.031750001 0.0014535002
-0.02375 -0.031750001 0.0014280006
-0.02375 -0.031750001 0.0014024992
-0.02375 -0.031750001 0.0013769995
-0.02375 -0.031750001 0.0013514999
-0.02375 -0.031750001 0.0013260003
-0.02375 -0.031750001 0.0013005007
-0.02375 -0.031750001 0.0012749992
-0.02375 -0.031750001 0.0012494996
-0.02375 -0.031750001 0.001224
-0.02375 -0.031750001 0.0011984985
-0.02375 -0.031750001 0.0011730008
-0.02375 -0.031750001 0.0011475012
-0.02375 -0.031750001 0.0011219997
-0.02375 -0.031750001 0.0010965001
-0.02375 -0.031750001 0.0010710005
-0.02375 -0.031750001 0.001045499
-0.02375 -0.031750001 0.0010199994
-0.02375 -0.031750001 0.00099449977
-0.02375 -0.031750001 0.00096900016
-0.02375 -0.031750001 0.00094350055
-0.02375 -0.031750001 0.00091800094
-0.02375 -0.031750001 0.00089249946
-0.02375 -0.031750001 0.00086699985
-0.02375 -0.031750001 0.00084150024
-0.02375 -0.031750001 0.00081599876
-0.02375 -0.031750001 0.00079050101
-0.02375 -0.031750001 0.0007650014
-0.02375 -0.031750001 0.00073949993
-0.02375 -0.031750001 0.00071400031
-0.02375 -0.031750001 0.0006885007
-0.02375 -0.031750001 0.00066299923
-0.02375 -0.031750001 0.00063749962
-0.02375 -0.031750001 0.00061199814
-0.02375 -0.031750001 0.00058650039
-0.02375 -0.031750001 0.00056100078
-0.02375 -0.031750001 0.0005354993
-0.02375 -0.031750001 0.00050999969
-0.02375 -0.031750001 0.00048450008
-0.02375 -0.031750001 0.00045899861
-0.02375 -0.031750001 0.00043349899
-0.02375 -0.031750001 0.00040800124
-0.02375 -0.031750001 0.00038249977
-0.02375 -0.031750001 0.00035700016
-0.02375 -0.031750001 0.00033150055
-0.02375 -0.031750001 0.00030599907
-0.02375 -0.031750001 0.00028049946
-0.02375 -0.031750001 0.00025499985
-0.02375 -0.031750001 0.00022950023
-0.02375 -0.031750001 0.00020400062
-0.02375 -0.031750001 0.00017850101
-0.02375 -0.031750001 0.00015299954
-0.02375 -0.031750001 0.00012749992
-0.02375 -0.031750001 0.00010200031
-0.02375 -0.031750001 7.6498836e-05
-0.02375 -0.031750001 5.0999224e-05
-0.02375 -0.031750001 2.5501475e-05
-0.02375 -0.031750001 0.0255
-0.02375 -0.031750001 0.0254745
-0.02375 -0.031750001 0.025449
-0.02375 -0.031750001 0.025423499
-0.02375 -0.031750001 0.025397999
-0.02375 -0.031750001 0.0253725
-0.02375 -0.031750001 0.025347
-0.02375 -0.031750001 0.0253215
-0.02375 -0.031750001 0.025295999
-0.02375 -0.031750001 0.025270499
-0.02375 -0.031750001 0.025245
-0.02375 -0.031750001 0.0252195
-0.02375 -0.031750001 0.025194
-0.02375 -0.031750001 0.025168499
-0.02375 -0.031750001 0.025142999
-0.02375 -0.031750001 0.0251175
-0.02375 -0.031750001 0.025092
-0.02375 -0.031750001 0.025066499
-0.02375 -0.031750001 0.025040999
-0.02375 -0.031750001 0.025015499
-0.02375 -0.031750001 0.02499
-0.02375 -0.031750001 0.0249645
-0.02375 -0.031750001 0.024938999
-0.02375 -0.031750001 0.024913499
-0.02375 -0.031750001 0.024888
-0.02375 -0.031750001 0.0248625
-0.02375 -0.031750001 0.024837
-0.02375 -0.031750001 0.024811499
-0.02375 -0.031750001 0.024785999
-0.02375 -0.031750001 0.0247605
-0.02375 -0.031750001 0.024735
-0.02375 -0.031750001 0.0247095
-0.02375 -0.031750001 0.024683999
-0.02375 -0.031750001 0.024658499
-0.02375 -0.031750001 0.024633
-0.02375 -0.031750001 0.0246075
-0.02375 -0.031750001 0.024581999
-0.02375 -0.031750001 0.024556499
-0.02375 -0.031750001 0.024530999
-0.02375 -0.031750001 0.0245055
-0.02375 -0.031750001 0.02448
-0.02375 -0.031750001 0.024454499
-0.02375 -0.031750001 0.024428999
-0.02375 -0.031750001 0.024403499
-0.02375 -0.031750001 0.024378
-0.02375 -0.031750001 0.0243525
-0.02375 -0.031750001 0.024326999
-0.02375 -0.031750001 0.024301499
-0.02375 -0.031750001 0.024276
-0.02375 -0.031750001 0.0242505
-0.02375 -0.031750001 0.024225
-0.02375 -0.031750001 0.024199499
-0.02375 -0.031750001 0.024173999
-0.02375 -0.031750001 0.0241485
-0.02375 -0.031750001 0.024123
-0.02375 -0.031750001 0.0240975
-0.02375 -0.031750001 0.024071999
-0.02375 -0.031750001 0.024046499
-0.02375 -0.031750001 0.024021
-0.02375 -0.031750001 0.0239955
-0.02375 -0.031750001 0.02397
-0.02375 -0.031750001 0.023944499
-0.02375 -0.031750001 0.023918999
-0.02375 -0.031750001 0.0238935
-0.02375 -0.031750001 0.023868
-0.02375 -0.031750001 0.023842499
-0.02375 -0.031750001 0.023816999
-0.02375 -0.031750001 0.023791499
-0.02375 -0.031750001 0.023766
-0.02375 -0.031750001 0.0237405
-0.02375 -0.031750001 0.023714999
-0.02375 -0.031750001 0.023689499
-0.02375 -0.031750001 0.023664
-0.02375 -0.031750001 0.0236385
-0.02375 -0.031750001 0.023613
-0.02375 -0.031750001 0.023587499
-0.02375 -0.031750001 0.023561999
-0.02375 -0.031750001 0.0235365
-0.02375 -0.031750001 0.023511
-0.02375 -0.031750001 0.0234855
-0.02375 -0.031750001 0.023459999
-0.02375 -0.031750001 0.023434499
-0.02375 -0.031750001 0.023409
-0.02375 -0.031750001 0.0233835
-0.02375 -0.031750001 0.023357999
-0.02375 -0.031750001 0.023332499
-0.02375 -0.031750001 0.023306999
-0.02375 -0.031750001 0.0232815
-0.02375 -0.031750001 0.023256
-0.02375 -0.031750001 0.023230501
-0.02375 -0.031750001 0.023204999
-0.02375 -0.031750001 0.023179499
-0.02375 -0.031750001 0.023154
-0.02375 -0.031750001 0.0231285
-0.02375 -0.031750001 0.023102999
-0.02375 -0.031750001 0.023077499
-0.02375 -0.031750001 0.023052
-0.02375 -0.031750001 0.0230265
-0.02375 -0.031750001 0.023001
-0.02375 -0.031750001 0.022975501
-0.02375 -0.031750001 0.022949999
-0.02375 -0.031750001 0.0229245
-0.02375 -0.031750001 0.022899
-0.02375 -0.031750001 0.0228735
-0.02375 -0.031750001 0.022847999
-0.02375 -0.031750001 0.022822499
-0.02375 -0.031750001 0.022797
-0.02375 -0.031750001 0.0227715
-0.02375 -0.031750001 0.022746
-0.02375 -0.031750001 0.022720499
-0.02375 -0.031750001 0.022694999
-0.02375 -0.031750001 0.0226695
-0.02375 -0.031750001 0.022644
-0.02375 -0.031750001 0.022618499
-0.02375 -0.031750001 0.022592999
-0.02375 -0.031750001 0.022567499
-0.02375 -0.031750001 0.022542
-0.02375 -0.031750001 0.0225165
-0.02375 -0.031750001 0.022491001
-0.02375 -0.031750001 0.022465499
-0.02375 -0.031750001 0.02244
-0.02375 -0.031750001 0.0224145
-0.02375 -0.031750001 0.022388998
-0.02375 -0.031750001 0.022363499
-0.02375 -0.031750001 0.022337999
-0.02375 -0.031750001 0.0223125
-0.02375 -0.031750001 0.022287
-0.02375 -0.031750001 0.0222615
-0.02375 -0.031750001 0.022235999
-0.02375 -0.031750001 0.022210499
-0.02375 -0.031750001 0.022185
-0.02375 -0.031750001 0.0221595
-0.02375 -0.031750001 0.022133999
-0.02375 -0.031750001 0.022108499
-0.02375 -0.031750001 0.022082999
-0.02375 -0.031750001 0.0220575
-0.02375 -0.031750001 0.022032
-0.02375 -0.031750001 0.022006501
-0.02375 -0.031750001 0.021980999
-0.02375 -0.031750001 0.021955499
-0.02375 -0.031750001 0.02193
-0.02375 -0.031750001 0.0219045
-0.02375 -0.031750001 0.021878999
-0.02375 -0.031750001 0.021853499
-0.02375 -0.031750001 0.021828
-0.02375 -0.031750001 0.0218025
-0.02375 -0.031750001 0.021777
-0.02375 -0.031750001 0.021751501
-0.02375 -0.031750001 0.021725999
-0.02375 -0.031750001 0.0217005
-0.02375 -0.031750001 0.021675
-0.02375 -0.031750001 0.0216495
-0.02375 -0.031750001 0.021623999
-0.02375 -0.031750001 0.021598499
-0.02375 -0.031750001 0.021573
-0.02375 -0.031750001 0.0215475
-0.02375 -0.031750001 0.021522
-0.02375 -0.031750001 0.021496499
-0.02375 -0.031750001 0.021470999
-0.02375 -0.031750001 0.0214455
-0.02375 -0.031750001 0.02142
-0.02375 -0.031750001 0.021394499
-0.02375 -0.031750001 0.021368999
-0.02375 -0.031750001 0.021343499
-0.02375 -0.031750001 0.021318
-0.02375 -0.031750001 0.0212925
-0.02375 -0.031750001 0.021267001
-0.02375 -0.031750001 0.021241499
-0.02375 -0.031750001 0.021215999
-0.02375 -0.031750001 0.0211905
-0.02375 -0.031750001 0.021164998
-0.02375 -0.031750001 0.021139499
-0.02375 -0.031750001 0.021113999
-0.02375 -0.031750001 0.0210885
-0.02375 -0.031750001 0.021063
-0.02375 -0.031750001 0.0210375
-0.02375 -0.031750001 0.021012001
-0.02375 -0.031750001 0.020986499
-0.02375 -0.031750001 0.020961
-0.02375 -0.031750001 0.0209355
-0.02375 -0.031750001 0.020909999
-0.02375 -0.031750001 0.020884499
-0.02375 -0.031750001 0.020858999
-0.02375 -0.031750001 0.0208335
-0.02375 -0.031750001 0.020808
-0.02375 -0.031750001 0.020782501
-0.02375 -0.031750001 0.020756999
-0.02375 -0.031750001 0.020731499
-0.02375 -0.031750001 0.020706
-0.02375 -0.031750001 0.0206805
-0.02375 -0.031750001 0.020654999
-0.02375 -0.031750001 0.020629499
-0.02375 -0.031750001 0.020603999
-0.02375 -0.031750001 0.0205785
-0.02375 -0.031750001 0.020553
-0.02375 -0.031750001 0.020527501
-0.02375 -0.031750001 0.020501999
-0.02375 -0.031750001 0.0204765
-0.02375 -0.031750001 0.020451
-0.02375 -0.031750001 0.020425498
-0.02375 -0.031750001 0.020399999
-0.02375 -0.031750001 0.020374499
-0.02375 -0.031750001 0.020349
-0.02375 -0.031750001 0.0203235
-0.02375 -0.031750001 0.020298
-0.02375 -0.031750001 0.020272499
-0.02375 -0.031750001 0.020246999
-0.02375 -0.031750001 0.0202215
-0.02375 -0.031750001 0.020196
-0.02375 -0.031750001 0.020170499
-0.02375 -0.031750001 0.020144999
-0.02375 -0.031750001 0.020119499
-0.02375 -0.031750001 0.020094
-0.02375 -0.031750001 0.0200685
-0.02375 -0.031750001 0.020043001
-0.02375 -0.031750001 0.020017499
-0.02375 -0.031750001 0.019991999
-0.02375 -0.031750001 0.0199665
-0.02375 -0.031750001 0.019940998
-0.02375 -0.031750001 0.019915499
-0.02375 -0.031750001 0.019889999
-0.02375 -0.031750001 0.0198645
-0.02375 -0.031750001 0.019839
-0.02375 -0.031750001 0.0198135
-0.02375 -0.031750001 0.019788001
-0.02375 -0.031750001 0.019762499
-0.02375 -0.031750001 0.019737
-0.02375 -0.031750001 0.0197115
-0.02375 -0.031750001 0.019685999
-0.02375 -0.031750001 0.019660499
-0.02375 -0.031750001 0.019634999
-0.02375 -0.031750001 0.0196095
-0.02375 -0.031750001 0.019584
-0.02375 -0.031750001 0.0195585
-0.02375 -0.031750001 0.019532999
-0.02375 -0.031750001 0.019507499
-0.02375 -0.031750001 0.019482
-0.02375 -0.031750001 0.0194565
-0.02375 -0.031750001 0.019430999
-0.02375 -0.031750001 0.019405499
-0.02375 -0.031750001 0.019379999
-0.02375 -0.031750001 0.0193545
-0.02375 -0.031750001 0.019329
-0.02375 -0.031750001 0.019303501
-0.02375 -0.031750001 0.019277999
-0.02375 -0.031750001 0.0192525
-0.02375 -0.031750001 0.019227
-0.02375 -0.031750001 0.019201498
-0.02375 -0.031750001 0.019175999
-0.02375 -0.031750001 0.019150499
-0.02375 -0.031750001 0.019125
-0.02375 -0.031750001 0.0190995
-0.02375 -0.031750001 0.019074
-0.02375 -0.031750001 0.019048499
-0.02375 -0.031750001 0.019022999
-0.02375 -0.031750001 0.0189975
-0.02375 -0.031750001 0.018972
-0.02375 -0.031750001 0.0189465
-0.02375 -0.031750001 0.018920999
-0.02375 -0.031750001 0.018895499
-0.02375 -0.031750001 0.01887
-0.02375 -0.031750001 0.0188445
-0.02375 -0.031750001 0.018819001
-0.02375 -0.031750001 0.018793499
-0.02375 -0.031750001 0.018767999
-0.02375 -0.031750001 0.0187425
-0.02375 -0.031750001 0.018716998
-0.02375 -0.031750001 0.018691499
-0.02375 -0.031750001 0.018665999
-0.02375 -0.031750001 0.0186405
-0.02375 -0.031750001 0.018615
-0.02375 -0.031750001 0.0185895
-0.02375 -0.031750001 0.018564001
-0.02375 -0.031750001 0.018538499
-0.02375 -0.031750001 0.018513
-0.02375 -0.031750001 0.0184875
-0.02375 -0.031750001 0.018461999
-0.02375 -0.031750001 0.018436499
-0.02375 -0.031750001 0.018410999
-0.02375 -0.031750001 0.0183855
-0.02375 -0.031750001 0.01836
-0.02375 -0.031750001 0.0183345
-0.02375 -0.031750001 0.018308999
-0.02375 -0.031750001 0.018283499
-0.02375 -0.031750001 0.018258
-0.02375 -0.031750001 0.0182325
-0.02375 -0.031750001 0.018206999
-0.02375 -0.031750001 0.018181499
-0.02375 -0.031750001 0.018155999
-0.02375 -0.031750001 0.0181305
-0.02375 -0.031750001 0.018105
-0.02375 -0.031750001 0.018079501
-0.02375 -0.031750001 0.018053999
-0.02375 -0.031750001 0.0180285
-0.02375 -0.031750001 0.018003
-0.02375 -0.031750001 0.017977498
-0.02375 -0.031750001 0.017951999
-0.02375 -0.031750001 0.017926499
-0.02375 -0.031750001 0.017901
-0.02375 -0.031750001 0.0178755
-0.02375 -0.031750001 0.01785
-0.02375 -0.031750001 0.017824499
-0.02375 -0.031750001 0.017798999
-0.02375 -0.031750001 0.0177735
-0.02375 -0.031750001 0.017748
-0.02375 -0.031750001 0.0177225
-0.02375 -0.031750001 0.017696999
-0.02375 -0.031750001 0.017671499
-0.02375 -0.031750001 0.017646
-0.02375 -0.031750001 0.0176205
-0.02375 -0.031750001 0.017595001
-0.02375 -0.031750001 0.017569499
-0.02375 -0.031750001 0.017543999
-0.02375 -0.031750001 0.0175185
-0.02375 -0.031750001 0.017492998
-0.02375 -0.031750001 0.017467499
-0.02375 -0.031750001 0.017441999
-0.02375 -0.031750001 0.0174165
-0.02375 -0.031750001 0.017391
-0.02375 -0.031750001 0.0173655
-0.02375 -0.031750001 0.017340001
-0.02375 -0.031750001 0.017314499
-0.02375 -0.031750001 0.017289
-0.02375 -0.031750001 0.0172635
-0.02375 -0.031750001 0.017237999
-0.02375 -0.031750001 0.017212499
-0.02375 -0.031750001 0.017186999
-0.02375 -0.031750001 0.0171615
-0.02375 -0.031750001 0.017136
-0.02375 -0.031750001 0.0171105
-0.02375 -0.031750001 0.017085001
-0.02375 -0.031750001 0.017059499
-0.02375 -0.031750001 0.017034
-0.02375 -0.031750001 0.017008498
-0.02375 -0.031750001 0.016982999
-0.02375 -0.031750001 0.016957499
-0.02375 -0.031750001 0.016931999
-0.02375 -0.031750001 0.0169065
-0.02375 -0.031750001 0.016881
-0.02375 -0.031750001 0.016855501
-0.02375 -0.031750001 0.016829999
-0.02375 -0.031750001 0.016804501
-0.02375 -0.031750001 0.016779
-0.02375 -0.031750001 0.016753498
-0.02375 -0.031750001 0.016727999
-0.02375 -0.031750001 0.016702499
-0.02375 -0.031750001 0.016677
-0.02375 -0.031750001 0.0166515
-0.02375 -0.031750001 0.016626
-0.02375 -0.031750001 0.016600501
-0.02375 -0.031750001 0.016574999
-0.02375 -0.031750001 0.0165495
-0.02375 -0.031750001 0.016524
-0.02375 -0.031750001 0.016498499
-0.02375 -0.031750001 0.016472999
-0.02375 -0.031750001 0.016447499
-0.02375 -0.031750001 0.016422
-0.02375 -0.031750001 0.0163965
-0.02375 -0.031750001 0.016371001
-0.02375 -0.031750001 0.016345499
-0.02375 -0.031750001 0.016319999
-0.02375 -0.031750001 0.0162945
-0.02375 -0.031750001 0.016268998
-0.02375 -0.031750001 0.016243499
-0.02375 -0.031750001 0.016217999
-0.02375 -0.031750001 0.0161925
-0.02375 -0.031750001 0.016167
-0.02375 -0.031750001 0.0161415
-0.02375 -0.031750001 0.016116001
-0.02375 -0.031750001 0.016090499
-0.02375 -0.031750001 0.016065
-0.02375 -0.031750001 0.0160395
-0.02375 -0.031750001 0.016013999
-0.02375 -0.031750001 0.015988499
-0.02375 -0.031750001 0.015962999
-0.02375 -0.031750001 0.0159375
-0.02375 -0.031750001 0.015912
-0.02375 -0.031750001 0.0158865
-0.02375 -0.031750001 0.015861001
-0.02375 -0.031750001 0.015835499
-0.02375 -0.031750001 0.01581
-0.02375 -0.031750001 0.015784498
-0.02375 -0.031750001 0.015758999
-0.02375 -0.031750001 0.015733499
-0.02375 -0.031750001 0.015707999
-0.02375 -0.031750001 0.0156825
-0.02375 -0.031750001 0.015657
-0.02375 -0.031750001 0.015631501
-0.02375 -0.031750001 0.015605999
-0.02375 -0.031750001 0.0155805
-0.02375 -0.031750001 0.015555
-0.02375 -0.031750001 0.015529499
-0.02375 -0.031750001 0.015503999
-0.02375 -0.031750001 0.0154785
-0.02375 -0.031750001 0.015453
-0.02375 -0.031750001 0.015427499
-0.02375 -0.031750001 0.015402
-0.02375 -0.031750001 0.0153765
-0.02375 -0.031750001 0.015350999
-0.02375 -0.031750001 0.0153255
-0.02375 -0.031750001 0.0153
-0.02375 -0.031750001 0.0152745
-0.02375 -0.031750001 0.015249
-0.02375 -0.031750001 0.015223499
-0.02375 -0.031750001 0.015198
-0.02375 -0.031750001 0.0151725
-0.02375 -0.031750001 0.015147
-0.02375 -0.031750001 0.015121499
-0.02375 -0.031750001 0.015096
-0.02375 -0.031750001 0.0150705
-0.02375 -0.031750001 0.015044999
-0.02375 -0.031750001 0.0150195
-0.02375 -0.031750001 0.014994
-0.02375 -0.031750001 0.0149685
-0.02375 -0.031750001 0.014942999
-0.02375 -0.031750001 0.0149175
-0.02375 -0.031750001 0.014892
-0.02375 -0.031750001 0.014866499
-0.02375 -0.031750001 0.014841
-0.02375 -0.031750001 0.0148155
-0.02375 -0.031750001 0.014789999
-0.02375 -0.031750001 0.0147645
-0.02375 -0.031750001 0.014739
-0.02375 -0.031750001 0.0147135
-0.02375 -0.031750001 0.014687999
-0.02375 -0.031750001 0.0146625
-0.02375 -0.031750001 0.014637
-0.02375 -0.031750001 0.014611499
-0.02375 -0.031750001 0.014586
-0.02375 -0.031750001 0.014560499
-0.02375 -0.031750001 0.014535
-0.02375 -0.031750001 0.0145095
-0.02375 -0.031750001 0.014483999
-0.02375 -0.031750001 0.0144585
-0.02375 -0.031750001 0.014433
-0.02375 -0.031750001 0.0144075
-0.02375 -0.031750001 0.014381999
-0.02375 -0.031750001 0.0143565
-0.02375 -0.031750001 0.014331
-0.02375 -0.031750001 0.014305499
-0.02375 -0.031750001 0.01428
-0.02375 -0.031750001 0.0142545
-0.02375 -0.031750001 0.014229
-0.02375 -0.031750001 0.014203499
-0.02375 -0.031750001 0.014178
-0.02375 -0.031750001 0.0141525
-0.02375 -0.031750001 0.014126999
-0.02375 -0.031750001 0.0141015
-0.02375 -0.031750001 0.014076
-0.02375 -0.031750001 0.0140505
-0.02375 -0.031750001 0.014025
-0.02375 -0.031750001 0.013999499
-0.02375 -0.031750001 0.013974
-0.02375 -0.031750001 0.0139485
-0.02375 -0.031750001 0.013923
-0.02375 -0.031750001 0.0138975
-0.02375 -0.031750001 0.013871999
-0.02375 -0.031750001 0.0138465
-0.02375 -0.031750001 0.013820999
-0.02375 -0.031750001 0.0137955
-0.02375 -0.031750001 0.01377
-0.02375 -0.031750001 0.0137445
-0.02375 -0.031750001 0.013718999
-0.02375 -0.031750001 0.0136935
-0.02375 -0.031750001 0.013668
-0.02375 -0.031750001 0.013642499
-0.02375 -0.031750001 0.013617001
-0.02375 -0.031750001 0.0135915
-0.02375 -0.031750001 0.013565999
-0.02375 -0.031750001 0.0135405
-0.02375 -0.031750001 0.013515
-0.02375 -0.031750001 0.0134895
-0.02375 -0.031750001 0.013464
-0.02375 -0.031750001 0.0134385
-0.02375 -0.031750001 0.013413
-0.02375 -0.031750001 0.013387499
-0.02375 -0.031750001 0.013362
-0.02375 -0.031750001 0.0133365
-0.02375 -0.031750001 0.013311
-0.02375 -0.031750001 0.0132855
-0.02375 -0.031750001 0.013259999
-0.02375 -0.031750001 0.0132345
-0.02375 -0.031750001 0.013209
-0.02375 -0.031750001 0.0131835
-0.02375 -0.031750001 0.013157999
-0.02375 -0.031750001 0.0131325
-0.02375 -0.031750001 0.013107
-0.02375 -0.031750001 0.013081499
-0.02375 -0.031750001 0.013055999
-0.02375 -0.031750001 0.0130305
-0.02375 -0.031750001 0.013005
-0.02375 -0.031750001 0.012979499
-0.02375 -0.031750001 0.012954
-0.02375 -0.031750001 0.0129285
-0.02375 -0.031750001 0.012902999
-0.02375 -0.031750001 0.0128775
-0.02375 -0.031750001 0.012852
-0.02375 -0.031750001 0.0128265
-0.02375 -0.031750001 0.012801
-0.02375 -0.031750001 0.012775499
-0.02375 -0.031750001 0.01275
-0.02375 -0.031750001 0.0127245
-0.02375 -0.031750001 0.012699
-0.02375 -0.031750001 0.0126735
-0.02375 -0.031750001 0.012648
-0.02375 -0.031750001 0.0126225
-0.02375 -0.031750001 0.012596999
-0.02375 -0.031750001 0.0125715
-0.02375 -0.031750001 0.012546
-0.02375 -0.031750001 0.0125205
-0.02375 -0.031750001 0.012494999
-0.02375 -0.031750001 0.0124695
-0.02375 -0.031750001 0.012444
-0.02375 -0.031750001 0.012418499
-0.02375 -0.031750001 0.012393001
-0.02375 -0.031750001 0.0123675
-0.02375 -0.031750001 0.012341999
-0.02375 -0.031750001 0.0123165
-0.02375 -0.031750001 0.012291
-0.02375 -0.031750001 0.0122655
-0.02375 -0.031750001 0.012239999
-0.02375 -0.031750001 0.0122145
-0.02375 -0.031750001 0.012189
-0.02375 -0.031750001 0.012163499
-0.02375 -0.031750001 0.012138
-0.02375 -0.031750001 0.0121125
-0.02375 -0.031750001 0.012087
-0.02375 -0.031750001 0.0120615
-0.02375 -0.031750001 0.012035999
-0.02375 -0.031750001 0.0120105
-0.02375 -0.031750001 0.011985
-0.02375 -0.031750001 0.0119595
-0.02375 -0.031750001 0.011933999
-0.02375 -0.031750001 0.0119085
-0.02375 -0.031750001 0.011883
-0.02375 -0.031750001 0.011857499
-0.02375 -0.031750001 0.011832001
-0.02375 -0.031750001 0.0118065
-0.02375 -0.031750001 0.011781
-0.02375 -0.031750001 0.011755499
-0.02375 -0.031750001 0.01173
-0.02375 -0.031750001 0.0117045
-0.02375 -0.031750001 0.011678999
-0.02375 -0.031750001 0.0116535
-0.02375 -0.031750001 0.011628
-0.02375 -0.031750001 0.0116025
-0.02375 -0.031750001 0.011577
-0.02375 -0.031750001 0.0115515
-0.02375 -0.031750001 0.011526
-0.02375 -0.031750001 0.0115005
-0.02375 -0.031750001 0.011475
-0.02375 -0.031750001 0.0114495
-0.02375 -0.031750001 0.011423999
-0.02375 -0.031750001 0.0113985
-0.02375 -0.031750001 0.011372999
-0.02375 -0.031750001 0.0113475
-0.02375 -0.031750001 0.011322
-0.02375 -0.031750001 0.0112965
-0.02375 -0.031750001 0.011270999
-0.02375 -0.031750001 0.0112455
-0.02375 -0.031750001 0.01122
-0.02375 -0.031750001 0.011194499
-0.02375 -0.031750001 0.011169001
-0.02375 -0.031750001 0.0111435
-0.02375 -0.031750001 0.011117999
-0.02375 -0.031750001 0.0110925
-0.02375 -0.031750001 0.011067
-0.02375 -0.031750001 0.0110415
-0.02375 -0.031750001 0.011016
-0.02375 -0.031750001 0.0109905
-0.02375 -0.031750001 0.010965
-0.02375 -0.031750001 0.010939499
-0.02375 -0.031750001 0.010914
-0.02375 -0.031750001 0.0108885
-0.02375 -0.031750001 0.010863
-0.02375 -0.031750001 0.0108375
-0.02375 -0.031750001 0.010811999
-0.02375 -0.031750001 0.0107865
-0.02375 -0.031750001 0.010761
-0.02375 -0.031750001 0.0107355
-0.02375 -0.031750001 0.010709999
-0.02375 -0.031750001 0.0106845
-0.02375 -0.031750001 0.010659
-0.02375 -0.031750001 0.010633499
-0.02375 -0.031750001 0.010608
-0.02375 -0.031750001 0.0105825
-0.02375 -0.031750001 0.010557
-0.02375 -0.031750001 0.010531499
-0.02375 -0.031750001 0.010506
-0.02375 -0.031750001 0.0104805
-0.02375 -0.031750001 0.010454999
-0.02375 -0.031750001 0.0104295
-0.02375 -0.031750001 0.010404
-0.02375 -0.031750001 0.0103785
-0.02375 -0.031750001 0.010353
-0.02375 -0.031750001 0.0103275
-0.02375 -0.031750001 0.010302
-0.02375 -0.031750001 0.0102765
-0.02375 -0.031750001 0.010251
-0.02375 -0.031750001 0.0102255
-0.02375 -0.031750001 0.0102
-0.02375 -0.031750001 0.0101745
-0.02375 -0.031750001 0.010148999
-0.02375 -0.031750001 0.0101235
-0.02375 -0.031750001 0.010098
-0.02375 -0.031750001 0.0100725
-0.02375 -0.031750001 0.010047
-0.02375 -0.031750001 0.0100215
-0.02375 -0.031750001 0.0099959997
-0.02375 -0.031750001 0.0099704992
-0.02375 -0.031750001 0.0099450005
-0.02375 -0.031750001 0.0099195
-0.02375 -0.031750001 0.0098939994
-0.02375 -0.031750001 0.0098685008
-0.02375 -0.031750001 0.0098429993
-0.02375 -0.031750001 0.0098174997
-0.02375 -0.031750001 0.0097920001
-0.02375 -0.031750001 0.0097665004
-0.02375 -0.031750001 0.009740999
-0.02375 -0.031750001 0.0097154994
-0.02375 -0.031750001 0.0096899997
-0.02375 -0.031750001 0.0096645001
-0.02375 -0.031750001 0.0096389987
-0.02375 -0.031750001 0.0096135009
-0.02375 -0.031750001 0.0095879994
-0.02375 -0.031750001 0.0095624998
-0.02375 -0.031750001 0.0095370002
-0.02375 -0.031750001 0.0095115006
-0.02375 -0.031750001 0.0094859991
-0.02375 -0.031750001 0.0094604995
-0.02375 -0.031750001 0.0094349999
-0.02375 -0.031750001 0.0094095003
-0.02375 -0.031750001 0.0093840007
-0.02375 -0.031750001 0.0093584992
-0.02375 -0.031750001 0.0093329996
-0.02375 -0.031750001 0.0093075
-0.02375 -0.031750001 0.0092819985
-0.02375 -0.031750001 0.0092564989
-0.02375 -0.031750001 0.0092310011
-0.02375 -0.031750001 0.0092054997
-0.02375 -0.031750001 0.0091800001
-0.02375 -0.031750001 0.0091545004
-0.02375 -0.031750001 0.009128999
-0.02375 -0.031750001 0.0091034994
-0.02375 -0.031750001 0.0090779997
-0.02375 -0.031750001 0.0090525001
-0.02375 -0.031750001 0.0090270005
-0.02375 -0.031750001 0.0090015009
-0.02375 -0.031750001 0.0089759994
-0.02375 -0.031750001 0.0089504998
-0.02375 -0.031750001 0.0089250002
-0.02375 -0.031750001 0.0088994987
-0.02375 -0.031750001 0.008874001
-0.02375 -0.031750001 0.0088485014
-0.02375 -0.031750001 0.0088229999
-0.02375 -0.031750001 0.0087975003
-0.02375 -0.031750001 0.0087719988
-0.02375 -0.031750001 0.0087464992
-0.02375 -0.031750001 0.0087209996
-0.02375 -0.031750001 0.0086954981
-0.02375 -0.031750001 0.0086700004
-0.02375 -0.031750001 0.0086445007
-0.02375 -0.031750001 0.0086189993
-0.02375 -0.031750001 0.0085934997
-0.02375 -0.031750001 0.008568
-0.02375 -0.031750001 0.0085424986
-0.02375 -0.031750001 0.008516999
-0.02375 -0.031750001 0.0084915012
-0.02375 -0.031750001 0.0084659997
-0.02375 -0.031750001 0.0084405001
-0.02375 -0.031750001 0.0084150005
-0.02375 -0.031750001 0.008389499
-0.02375 -0.031750001 0.0083639994
-0.02375 -0.031750001 0.0083384998
-0.02375 -0.031750001 0.0083129983
-0.02375 -0.031750001 0.0082875006
-0.02375 -0.031750001 0.008262001
-0.02375 -0.031750001 0.0082364995
-0.02375 -0.031750001 0.0082109999
-0.02375 -0.031750001 0.0081855003
-0.02375 -0.031750001 0.0081599988
-0.02375 -0.031750001 0.0081344992
-0.02375 -0.031750001 0.0081090014
-0.02375 -0.031750001 0.0080835
-0.02375 -0.031750001 0.0080580004
-0.02375 -0.031750001 0.0080325007
-0.02375 -0.031750001 0.0080069993
-0.02375 -0.031750001 0.0079814997
-0.02375 -0.031750001 0.007956
-0.02375 -0.031750001 0.0079305004
-0.02375 -0.031750001 0.0079050008
-0.02375 -0.031750001 0.0078794993
-0.02375 -0.031750001 0.0078539997
-0.02375 -0.031750001 0.0078285001
-0.02375 -0.031750001 0.0078029986
-0.02375 -0.031750001 0.007777499
-0.02375 -0.031750001 0.0077519994
-0.02375 -0.031750001 0.0077264998
-0.02375 -0.031750001 0.0077010002
-0.02375 -0.031750001 0.0076755006
-0.02375 -0.031750001 0.0076499991
-0.02375 -0.031750001 0.0076244995
-0.02375 -0.031750001 0.0075989999
-0.02375 -0.031750001 0.0075734984
-0.02375 -0.031750001 0.0075480007
-0.02375 -0.031750001 0.0075225011
-0.02375 -0.031750001 0.0074969996
-0.02375 -0.031750001 0.0074715
-0.02375 -0.031750001 0.0074460004
-0.02375 -0.031750001 0.0074204989
-0.02375 -0.031750001 0.0073949993
-0.02375 -0.031750001 0.0073695015
-0.02375 -0.031750001 0.007344
-0.02375 -0.031750001 0.0073185004
-0.02375 -0.031750001 0.0072930008
-0.02375 -0.031750001 0.0072674993
-0.02375 -0.031750001 0.0072419997
-0.02375 -0.031750001 0.0072165001
-0.02375 -0.031750001 0.0071909986
-0.02375 -0.031750001 0.0071655009
-0.02375 -0.031750001 0.0071399994
-0.02375 -0.031750001 0.0071144998
-0.02375 -0.031750001 0.0070890002
-0.02375 -0.031750001 0.0070634987
-0.02375 -0.031750001 0.0070379991
-0.02375 -0.031750001 0.0070124995
-0.02375 -0.031750001 0.0069869999
-0.02375 -0.031750001 0.0069615003
-0.02375 -0.031750001 0.0069360007
-0.02375 -0.031750001 0.0069104992
-0.02375 -0.031750001 0.0068849996
-0.02375 -0.031750001 0.0068595
-0.02375 -0.031750001 0.0068339985
-0.02375 -0.031750001 0.0068085007
-0.02375 -0.031750001 0.0067830011
-0.02375 -0.031750001 0.0067574997
-0.02375 -0.031750001 0.006732
-0.02375 -0.031750001 0.0067065004
-0.02375 -0.031750001 0.006680999
-0.02375 -0.031750001 0.0066554993
-0.02375 -0.031750001 0.0066299997
-0.02375 -0.031750001 0.0066045001
-0.02375 -0.031750001 0.0065790005
-0.02375 -0.031750001 0.0065535009
-0.02375 -0.031750001 0.0065279994
-0.02375 -0.031750001 0.0065024998
-0.02375 -0.031750001 0.0064770002
-0.02375 -0.031750001 0.0064514987
-0.02375 -0.031750001 0.006426001
-0.02375 -0.031750001 0.0064005014
-0.02375 -0.031750001 0.0063749999
-0.02375 -0.031750001 0.0063495003
-0.02375 -0.031750001 0.0063240007
-0.02375 -0.031750001 0.0062984992
-0.02375 -0.031750001 0.0062729996
-0.02375 -0.031750001 0.0062474981
-0.02375 -0.031750001 0.0062220003
-0.02375 -0.031750001 0.0061965007
-0.02375 -0.031750001 0.0061709993
-0.02375 -0.031750001 0.0061454996
-0.02375 -0.031750001 0.00612
-0.02375 -0.031750001 0.0060944986
-0.02375 -0.031750001 0.0060689989
-0.02375 -0.031750001 0.0060435012
-0.02375 -0.031750001 0.0060179997
-0.02375 -0.031750001 0.0059925001
-0.02375 -0.031750001 0.0059670005
-0.02375 -0.031750001 0.005941499
-0.02375 -0.031750001 0.0059159994
-0.02375 -0.031750001 0.0058904998
-0.02375 -0.031750001 0.0058650002
-0.02375 -0.031750001 0.0058395006
-0.02375 -0.031750001 0.005814001
-0.02375 -0.031750001 0.0057884995
-0.02375 -0.031750001 0.0057629999
-0.02375 -0.031750001 0.0057375003
-0.02375 -0.031750001 0.0057119988
-0.02375 -0.031750001 0.0056864992
-0.02375 -0.031750001 0.0056610014
-0.02375 -0.031750001 0.0056355
-0.02375 -0.031750001 0.0056100003
-0.02375 -0.031750001 0.0055845007
-0.02375 -0.031750001 0.0055589993
-0.02375 -0.031750001 0.0055334996
-0.02375 -0.031750001 0.0055079982
-0.02375 -0.031750001 0.0054825004
-0.02375 -0.031750001 0.0054570008
-0.02375 -0.031750001 0.0054314993
-0.02375 -0.031750001 0.0054059997
-0.02375 -0.031750001 0.0053805001
-0.02375 -0.031750001 0.0053549986
-0.02375 -0.031750001 0.005329499
-0.02375 -0.031750001 0.0053040013
-0.02375 -0.031750001 0.0052784998
-0.02375 -0.031750001 0.0052530002
-0.02375 -0.031750001 0.0052275006
-0.02375 -0.031750001 0.0052019991
-0.02375 -0.031750001 0.0051764995
-0.02375 -0.031750001 0.0051509999
-0.02375 -0.031750001 0.0051254984
-0.02375 -0.031750001 0.0051000006
-0.02375 -0.031750001 0.005074501
-0.02375 -0.031750001 0.0050489996
-0.02375 -0.031750001 0.0050235
-0.02375 -0.031750001 0.0049980003
-0.02375 -0.031750001 0.0049724989
-0.02375 -0.031750001 0.0049469993
-0.02375 -0.031750001 0.0049215015
-0.02375 -0.031750001 0.004896
-0.02375 -0.031750001 0.0048705004
-0.02375 -0.031750001 0.0048450008
-0.02375 -0.031750001 0.0048194993
-0.02375 -0.031750001 0.0047939997
-0.02375 -0.031750001 0.0047685001
-0.02375 -0.031750001 0.0047429986
-0.02375 -0.031750001 0.0047175009
-0.02375 -0.031750001 0.0046920013
-0.02375 -0.031750001 0.0046664998
-0.02375 -0.031750001 0.0046410002
-0.02375 -0.031750001 0.0046154987
-0.02375 -0.031750001 0.0045899991
-0.02375 -0.031750001 0.0045644995
-0.02375 -0.031750001 0.0045389999
-0.02375 -0.031750001 0.0045135003
-0.02375 -0.031750001 0.0044880006
-0.02375 -0.031750001 0.0044624992
-0.02375 -0.031750001 0.0044369996
-0.02375 -0.031750001 0.0044114999
-0.02375 -0.031750001 0.0043859985
-0.02375 -0.031750001 0.0043605007
-0.02375 -0.031750001 0.0043350011
-0.02375 -0.031750001 0.0043094996
-0.02375 -0.031750001 0.004284
-0.02375 -0.031750001 0.0042585004
-0.02375 -0.031750001 0.0042329989
-0.02375 -0.031750001 0.0042074993
-0.02375 -0.031750001 0.0041819997
-0.02375 -0.031750001 0.0041565001
-0.02375 -0.031750001 0.0041310005
-0.02375 -0.031750001 0.0041055009
-0.02375 -0.031750001 0.0040799994
-0.02375 -0.031750001 0.0040544998
-0.02375 -0.031750001 0.0040290002
-0.02375 -0.031750001 0.0040034987
-0.02375 -0.031750001 0.003978001
-0.02375 -0.031750001 0.0039525013
-0.02375 -0.031750001 0.0039269999
-0.02375 -0.031750001 0.0039015003
-0.02375 -0.031750001 0.0038759988
-0.02375 -0.031750001 0.0038504992
-0.02375 -0.031750001 0.0038249996
-0.02375 -0.031750001 0.0037994999
-0.02375 -0.031750001 0.0037740003
-0.02375 -0.031750001 0.0037485007
-0.02375 -0.031750001 0.0037229992
-0.02375 -0.031750001 0.0036974996
-0.02375 -0.031750001 0.003672
-0.02375 -0.031750001 0.0036464985
-0.02375 -0.031750001 0.0036209989
