# .PCD v0.7 - Point Cloud Data file format
VERSION 0.7
FIELDS x y z rgb
SIZE 4 4 4 4
TYPE F F F U
COUNT 1 1 1 1
WIDTH 995
HEIGHT 1
VIEWPOINT 0 0 0 1 0 0 0
POINTS 995
DATA ascii
0.023750005 -0.020262446 0.018767962 4278255360
-0.023750005 -0.01977231 0.018754413 4278255360
-0.023750005 -0.01977231 0.018754413 4278255360
0.023750005 -0.019729398 0.018736696 4278255360
-0.023750003 -0.019265575 0.018748414 4278255360
-0.023750003 -0.019265575 0.018748414 4278255360
0.023750005 -0.019173075 0.018775674 4278255360
-0.023750005 -0.018766563 0.018670298 4278255360
-0.023750005 -0.018766563 0.018670298 4278255360
0.023750005 -0.018766399 0.018732348 4278255360
-0.023750005 -0.018265909 0.018805701 4278255360
-0.023750005 -0.018265909 0.018805701 4278255360
0.023750005 -0.01827478 0.018709973 4278255360
-0.023750005 -0.017777991 0.01874855 4278255360
-0.023750005 -0.017777991 0.01874855 4278255360
0.023750005 -0.017769909 0.018732304 4278255360
-0.023750005 -0.017179387 0.018742569 4278255360
-0.023750005 -0.017179387 0.018742569 4278255360
0.023750005 -0.017267903 0.018734651 4278255360
-0.023750003 -0.016756305 0.018702397 4278255360
-0.023750003 -0.016756305 0.018702397 4278255360
0.023750005 -0.016714578 0.018709315 4278255360
-0.023750005 -0.01625585 0.01875275 4278255360
-0.023750005 -0.01625585 0.01875275 4278255360
0.023750005 -0.016196039 0.018728424 4278255360
-0.023750005 -0.015704554 0.018744608 4278255360
-0.023750005 -0.015704554 0.018744608 4278255360
0.023750005 -0.015727308 0.018755808 4278255360
0.023750005 -0.015727308 0.018755808 4278255360
-0.023750005 -0.015307596 0.01875912 4278255360
-0.023750005 -0.015307596 0.01875912 4278255360
0.023750005 -0.015329298 0.018717188 4278255360
0.023750005 -0.015329298 0.018717188 4278255360
-0.023750005 -0.014795343 0.018734142 4278255360
-0.023750005 -0.014795343 0.018734142 4278255360
0.023750005 -0.014716687 0.018746655 4278255360
0.023750005 -0.014716687 0.018746655 4278255360
-0.023750005 -0.014239158 0.018736409 4278255360
-0.023750005 -0.014239158 0.018736409 4278255360
0.023750005 -0.014288875 0.018779546 4278255360
0.023750005 -0.014288875 0.018779546 4278255360
-0.023750005 -0.013731569 0.018799078 4278255360
-0.023750005 -0.013731569 0.018799078 4278255360
0.023750005 -0.013760201 0.018740598 4278255360
0.023750005 -0.013760201 0.018740598 4278255360
-0.023750005 -0.013254463 0.018769763 4278255360
0.023750005 -0.013283285 0.0187604 4278255360
0.023750005 -0.013283285 0.0187604 4278255360
-0.023750005 -0.012716051 0.018763885 4278255360
0.023750005 -0.012760081 0.018745389 4278255360
0.023750005 -0.012760081 0.018745389 4278255360
-0.023750005 -0.012188391 0.01869021 4278255360
0.023750005 -0.012256038 0.018779768 4278255360
0.023750005 -0.012256038 0.018779768 4278255360
-0.023750005 -0.011729443 0.018775107 4278255360
0.023750005 -0.011767552 0.01872538 4278255360
0.023750005 -0.011767552 0.01872538 4278255360
-0.023750005 -0.011260244 0.018748261 4278255360
0.023750005 -0.011276029 0.018790158 4278255360
0.023750005 -0.011276029 0.018790158 4278255360
-0.023750005 -0.01071427 0.018734142 4278255360
0.023750005 -0.010761341 0.018754536 4278255360
0.023750005 -0.010761341 0.018754536 4278255360
-0.023750005 -0.010254093 0.018799638 4278255360
0.023750005 -0.010292855 0.018705834 4278255360
-0.023750005 -0.0097827446 0.018767161 4278255360
0.023750005 -0.009711924 0.018738888 4278255360
0.023750005 -0.009711924 0.018738888 4278255360
-0.023750005 -0.0092365984 0.018725056 4278255360
0.023750005 -0.0092193298 0.018739272 4278255360
-0.023750005 -0.0087453984 0.018769586 4278255360
0.023750005 -0.0087896567 0.018817332 4278255360
-0.023750005 -0.0082787685 0.018747797 4278255360
-0.023750005 -0.0082787685 0.018747797 4278255360
0.023750005 -0.0082274936 0.018756337 4278255360
-0.023750005 -0.0077573126 0.018738678 4278255360
-0.023750005 -0.0077573126 0.018738678 4278255360
0.023750005 -0.0077007655 0.018727528 4278255360
-0.023750005 -0.0072602923 0.018718265 4278255360
-0.023750005 -0.0072602923 0.018718265 4278255360
0.023750005 -0.0072368402 0.018681616 4278255360
-0.023750005 -0.0067995451 0.018749058 4278255360
-0.023750005 -0.0067995451 0.018749058 4278255360
0.023750005 -0.0067105489 0.018710317 4278255360
-0.023750005 -0.0061711636 0.018739698 4278255360
0.023750005 -0.0062554679 0.018743435 4278255360
-0.023750005 -0.0056988983 0.018746587 4278255360
0.023750005 -0.0057928832 0.018812159 4278255360
-0.023750005 -0.0052170833 0.018766498 4278255360
0.023750005 -0.0052169212 0.01876053 4278255360
-0.023750005 -0.0047608549 0.018747725 4278255360
-0.023750005 -0.0047608549 0.018747725 4278255360
0.023750005 -0.0047828602 0.018746674 4278255360
-0.023750005 -0.0042259158 0.018738128 4278255360
-0.023750005 -0.0042259158 0.018738128 4278255360
0.023750005 -0.0042579612 0.018735109 4278255360
-0.023750005 -0.0037526034 0.018764865 4278255360
-0.023750005 -0.0037526034 0.018764865 4278255360
0.023750005 -0.0037227324 0.01874562 4278255360
-0.023750005 -0.0032513046 0.018706918 4278255360
-0.023750005 -0.0032513046 0.018706918 4278255360
0.023750005 -0.0032127965 0.018736767 4278255360
-0.023750005 -0.0027311025 0.018758891 4278255360
0.023750005 -0.0027071934 0.018826466 4278255360
-0.023750005 -0.0022921257 0.018724058 4278255360
0.023750005 -0.0023068229 0.018723087 4278255360
-0.023750005 -0.0017675683 0.018729111 4278255360
-0.023750005 -0.0017675683 0.018729111 4278255360
0.023750005 -0.0016984139 0.018755855 4278255360
-0.023750005 -0.0012793276 0.018782014 4278255360
-0.023750005 -0.0012793276 0.018782014 4278255360
0.023750005 -0.0012163881 0.018755842 4278255360
-0.023750005 -0.00069572515 0.01869145 4278255360
0.023750005 -0.00076408667 0.018732864 4278255360
-0.023750005 -0.00026282499 0.018709963 4278255360
0.023750005 -0.00021196062 0.018781353 4278255360
-0.023750005 0.00024844988 0.018698724 4278255360
0.023750005 0.00023836015 0.018722411 4278255360
-0.023750005 0.00072650792 0.018806271 4278255360
0.023750005 0.0007555855 0.018719282 4278255360
-0.023750005 0.0012471713 0.018766942 4278255360
0.023750005 0.0012882377 0.018703381 4278255360
-0.023750005 0.0017210225 0.018784758 4278255360
0.023750005 0.0017153497 0.018764738 4278255360
-0.023750005 0.0022544116 0.018784527 4278255360
0.023750005 0.0022441172 0.018787857 4278255360
-0.023750005 0.0027547919 0.018746873 4278255360
0.023750005 0.0027222908 0.018756295 4278255360
-0.023750005 0.0032256243 0.018753801 4278255360
0.023750005 0.0032787253 0.018832862 4278255360
-0.023750005 0.0037885671 0.018736294 4278255360
-0.023750005 0.0037885671 0.018736294 4278255360
0.023750005 0.0037953495 0.018741917 4278255360
-0.023750005 0.004225105 0.018788438 4278255360
-0.023750005 0.004225105 0.018788438 4278255360
0.023750005 0.0042567486 0.018796148 4278255360
-0.023750005 0.0047457558 0.018716209 4278255360
-0.023750005 0.0047457558 0.018716209 4278255360
0.023750005 0.0047620642 0.018728221 4278255360
-0.023750005 0.005268489 0.018687937 4278255360
-0.023750005 0.005268489 0.018687937 4278255360
0.023750005 0.0052155992 0.018730583 4278255360
0.023750005 0.0052155992 0.018730583 4294952960
-0.023750005 0.0057016052 0.018740173 4278255360
-0.023750005 0.0057016052 0.018740173 4278255360
0.023750005 0.0057539134 0.018642548 4278255360
0.023750005 0.0057539134 0.018642548 4278255360
-0.023750005 0.0062187221 0.018761603 4278255360
-0.023750005 0.0062187221 0.018761603 4278255360
0.023750005 0.0062912526 0.018776346 4278255360
0.023750005 0.0062912526 0.018776346 4278255360
-0.023750005 0.0067816703 0.018738782 4278255360
-0.023750005 0.0067816703 0.018738782 4278255360
0.023750005 0.0067585721 0.018780068 4278255360
0.023750005 0.0067585721 0.018780068 4278255360
-0.023750005 0.0072533442 0.018730592 4278255360
-0.023750005 0.0072533442 0.018730592 4278255360
0.023750005 0.0072775879 0.01874534 4278255360
-0.023750005 0.0077463849 0.018765153 4278255360
-0.023750005 0.0077463849 0.018765153 4278255360
0.023750005 0.007744926 0.018742634 4278255360
0.023750005 0.007744926 0.018742634 4278255360
-0.023750005 0.008258068 0.018770387 4278255360
-0.023750005 0.008258068 0.018770387 4278255360
0.023750005 0.0082505364 0.018763194 4278255360
0.023750005 0.0082505364 0.018763194 4278255360
-0.023750005 0.0086683407 0.0187623 4278255360
-0.023750005 0.0086683407 0.0187623 4278255360
0.023750005 0.0087747527 0.018697483 4278255360
0.023750005 0.0087747527 0.018697483 4278255360
-0.023750005 0.0091931224 0.018759891 4278255360
-0.023750005 0.0091931224 0.018759891 4278255360
0.023750005 0.0092205582 0.018757416 4278255360
0.023750005 0.0092205582 0.018757416 4278255360
-0.023750005 0.0097638033 0.018765183 4278255360
-0.023750005 0.0097638033 0.018765183 4278255360
0.023750005 0.0097451713 0.018323148 4278255360
0.023750005 0.0097480202 0.01873184 4278255360
-0.023750005 0.010267974 0.018755782 4278255360
-0.023750005 0.010267974 0.018755782 4278255360
0.023750005 0.010201091 0.018803135 4278255360
-0.023750005 0.010701231 0.018761648 4278255360
-0.023750005 0.010701231 0.018761648 4278255360
0.023750005 0.010791059 0.018737171 4278255360
-0.023750003 0.011249362 0.018735016 4278255360
-0.023750003 0.011249362 0.018735016 4278255360
0.023750005 0.011268207 0.01874725 4278255360
-0.023750005 0.011743072 0.018756924 4278255360
-0.023750005 0.011743072 0.018756924 4278255360
0.023750005 0.011745064 0.018755278 4278255360
-0.023750005 0.012257005 0.018740941 4278255360
0.023750005 0.012257353 0.018737461 4278255360
-0.023750005 0.01273745 0.018786881 4278255360
0.023750005 0.012735547 0.018730884 4278255360
0.023750005 0.013212875 0.018773904 4294952960
-0.023750005 0.013229831 0.018759383 4278255360
-0.023750005 0.013764732 0.01876243 4278255360
-0.023750005 0.014232019 0.018748425 4278255360
0.023750005 0.014250675 0.018749751 4278255360
-0.023750005 0.014693272 0.018741293 4278255360
-0.023750005 0.015202737 0.01874258 4278255360
-0.023750005 0.015733903 0.018713536 4278255360
0.023750005 0.015753794 0.018758489 4278255360
-0.023750005 0.0162594 0.018742688 4278255360
-0.023750005 0.0162594 0.018742688 4278255360
0.023750005 0.016254338 0.018763693 4278255360
-0.023750005 0.016758444 0.018789217 4278255360
0.023750005 0.016780779 0.0187364 4278255360
-0.023750005 0.017195988 0.018741269 4278255360
0.023750003 0.01731015 0.018769169 4278255360
-0.023750005 0.017792515 0.018712349 4278255360
-0.023750005 0.0182207 0.018710069 4278255360
0.023750005 0.018290473 0.018735457 4278255360
-0.023750005 0.018736595 0.018747736 4278255360
0.023750005 0.018755257 0.019237401 4278255360
-0.023750005 0.019261021 0.018758178 4278255360
-0.023750005 0.019261021 0.018758178 4278255360
-0.023750005 0.019743538 0.018768242 4278255360
-0.023750005 0.019743538 0.018768242 4278255360
0.023750005 0.019746132 0.018730287 4278255360
-0.023750005 0.020232195 0.018765559 4278255360
0.023750005 0.020200092 0.018782649 4278255360
-0.023750005 0.020805389 0.018693272 4278255360
0.023750005 0.020757236 0.018756913 4278255360
-0.023750005 0.0212691 0.018687867 4278255360
0.023750005 0.021200342 0.018723929 4278255360
-0.023750005 0.02175092 0.018734824 4278255360
0.023750005 0.021745311 0.018755464 4278255360
-0.023750005 0.022254966 0.018764807 4278255360
0.023750003 0.022228044 0.018751226 4278255360
-0.023750005 0.022793114 0.018739052 4278255360
0.023750005 0.022700541 0.018762277 4278255360
-0.023750005 0.023239449 0.018815776 4278255360
0.023750005 0.023212774 0.01874092 4278255360
-0.023750005 0.023715701 0.0187611 4278255360
0.023750005 0.023722854 0.018767085 4278255360
-0.023750005 0.024274075 0.018764151 4278255360
-0.023750005 0.024743393 0.018742515 4278255360
-0.023750005 0.025233921 0.018796967 4278255360
0.023750005 0.02525002 0.018720945 4278255360
-0.023750005 0.025739161 0.018758774 4278255360
-0.023750005 0.025739161 0.018758774 4278255360
0.023750005 0.025768438 0.01871771 4278255360
-0.023750005 0.026282892 0.018760359 4278255360
-0.023750005 0.026282892 0.018760359 4278255360
0.023750005 0.026244501 0.018763229 4278255360
-0.023750005 0.026739966 0.018322069 4294952960
-0.023750005 0.026715878 0.018823508 4278255360
0.023750005 0.026768068 0.018725801 4278255360
0.023750005 0.026768068 0.018725801 4278255360
-0.023750005 0.027265657 0.018752722 4294952960
-0.023750005 0.027265657 0.018752722 4278255360
0.023750005 0.027236046 0.018746115 4278255360
0.023750005 0.027236046 0.018746115 4278255360
-0.023750005 0.027695376 0.018699011 4294952960
-0.023750005 0.027695376 0.018699011 4278255360
0.023750005 0.027763844 0.018726964 4278255360
-0.023750005 0.028282924 0.018282745 4278255360
0.023750005 0.028223457 0.018765399 4278255360
0.023750005 0.028223457 0.018765399 4278255360
-0.023750005 0.028747987 0.018762322 4278255360
0.023750005 0.028734254 0.018750271 4278255360
-0.023750005 0.029289328 0.018738523 4278255360
0.023750003 0.029244572 0.018718306 4278255360
-0.023750005 0.02974624 0.01876167 4278255360
0.023750005 0.029746789 0.018735683 4278255360
0.023750005 0.029746789 0.018735683 4278255360
-0.023750005 0.030199284 0.018712971 4278255360
-0.023750005 0.030199284 0.018712971 4278255360
0.023750005 0.030290781 0.018745421 4278255360
0.023750005 0.030290781 0.018745421 4278255360
-0.023750005 0.030751109 0.018741801 4278255360
-0.023750005 0.030751109 0.018741801 4278255360
-0.023750005 0.030751109 0.018741801 4294952960
0.023750005 0.030761104 0.018805446 4278255360
0.023750005 0.030761104 0.018805446 4278255360
0.023750005 0.030761104 0.018805446 4278255360
-0.023750003 0.031286586 0.018726246 4278255360
-0.023750003 0.031286586 0.018726246 4278255360
-0.023750003 0.031286586 0.018726246 4294952960
-0.02277601 0.031749997 0.018757468 4294952960
-0.0057755383 0.031750008 0.01865934 4278255360
-0.0042406647 0.031749997 0.018762438 4278255360
-0.0037608843 0.031749997 0.018797807 4278255360
0.0012614403 0.031750008 0.018774886 4278255360
0.022257775 0.031750008 0.018767325 4294952960
0.023750005 0.031274997 0.018765932 4294952960
0.023750005 0.031274997 0.018765932 4278255360
0.023750005 0.031274997 0.018765932 4278255360
-0.023711033 0.031670563 0.018716553 4278255360
-0.023256272 0.031750001 0.018714769 4278255360
-0.02277601 0.031749997 0.018757468 4278255360
-0.022243531 0.031750008 0.01828194 4278255360
-0.021717301 0.031750005 0.01877854 4278255360
-0.021262359 0.031750001 0.01870192 4278255360
-0.020728977 0.031750001 0.018715946 4278255360
-0.020229535 0.031750005 0.018804593 4278255360
-0.019743677 0.031750008 0.018708596 4278255360
-0.019266054 0.031750005 0.018785069 4278255360
-0.018814709 0.031749997 0.018732144 4278255360
-0.018316036 0.031750005 0.018723419 4278255360
-0.017753016 0.031750008 0.018795367 4278255360
-0.017213531 0.031750001 0.018768713 4278255360
-0.016760433 0.031750001 0.018720035 4278255360
-0.016275916 0.031750001 0.018748175 4278255360
-0.015748611 0.031750008 0.018716514 4278255360
-0.015218727 0.031750005 0.018733146 4278255360
-0.01475765 0.031750008 0.018772649 4278255360
-0.01419105 0.031750008 0.018746762 4278255360
-0.013718876 0.031750008 0.018755563 4278255360
-0.01324023 0.031750005 0.01876368 4278255360
-0.01271252 0.031750008 0.018755637 4278255360
-0.012260505 0.031750008 0.018771891 4278255360
-0.011765419 0.031750008 0.018792383 4278255360
-0.011257729 0.031750008 0.01874184 4278255360
-0.010756636 0.031750005 0.018789997 4278255360
-0.010235196 0.031750005 0.01826488 4278255360
-0.0097505888 0.031750005 0.018735735 4278255360
-0.009179567 0.031750008 0.018763769 4278255360
-0.0087640584 0.031750005 0.018713286 4278255360
-0.0082687046 0.031749997 0.018746559 4278255360
-0.0077619338 0.031750005 0.018720642 4278255360
-0.0067413934 0.031749997 0.018737307 4278255360
-0.0062614749 0.031749997 0.018780215 4278255360
-0.0052344189 0.031750005 0.018275026 4278255360
-0.0047975746 0.031750005 0.018670227 4278255360
-0.0042406647 0.031749997 0.018762438 4278255360
-0.0037608843 0.031749997 0.018797807 4278255360
-0.003215004 0.031750001 0.018765017 4278255360
-0.0026879641 0.031750001 0.01827696 4278255360
-0.002291648 0.031750008 0.018720165 4278255360
-0.0013300336 0.031750008 0.01828403 4278255360
-0.00076602551 0.031750005 0.018737033 4278255360
-0.00024106188 0.031750008 0.018768622 4278255360
0.00029508889 0.031750001 0.018776504 4278255360
0.00073990313 0.031749997 0.01880054 4278255360
0.0012614403 0.031750008 0.018774886 4278255360
0.0017107623 0.031749997 0.018759249 4278255360
0.0022621569 0.031749997 0.018328682 4278255360
0.0027391205 0.031750005 0.018751537 4278255360
0.0032501253 0.031749997 0.018239776 4278255360
0.0042505269 0.031749997 0.019164732 4278255360
0.0047664354 0.031750005 0.018243512 4278255360
0.0052459934 0.031749997 0.018733284 4278255360
0.005829188 0.031750005 0.018745156 4278255360
0.0062408675 0.031750005 0.018713139 4278255360
0.0067734816 0.031750008 0.018787866 4278255360
0.0072409911 0.031750008 0.018760627 4278255360
0.0077758599 0.031750008 0.018769259 4278255360
0.0082337027 0.031750001 0.018738389 4278255360
0.0087319035 0.031750008 0.019223057 4278255360
0.0092602186 0.031750005 0.018756792 4278255360
0.0097956359 0.031750008 0.018772967 4278255360
0.010273552 0.031750005 0.018785264 4278255360
0.011232787 0.031750008 0.019236378 4278255360
0.011753711 0.031749997 0.018742073 4278255360
0.012797899 0.031750001 0.018796319 4278255360
0.01328763 0.031749997 0.018734664 4278255360
0.013806251 0.031749997 0.01872821 4278255360
0.014725327 0.031750001 0.019227959 4278255360
0.015271977 0.031750001 0.01879047 4278255360
0.015761923 0.031750001 0.018776555 4278255360
0.016749306 0.031750001 0.018770646 4278255360
0.017232945 0.031750001 0.019203451 4278255360
0.017767398 0.031750001 0.018788701 4278255360
0.018268196 0.031750008 0.018711569 4278255360
0.018711049 0.031750008 0.018772854 4278255360
0.019202355 0.031750005 0.018782437 4278255360
0.019764859 0.031749997 0.018803446 4278255360
0.020251101 0.031750005 0.018759636 4278255360
0.020804873 0.031750005 0.018734997 4278255360
0.021246877 0.031749997 0.018819842 4278255360
0.021772502 0.031750008 0.018794863 4278255360
0.022257775 0.031750008 0.018767325 4278255360
0.02274896 0.031749997 0.018718554 4278255360
0.023332261 0.031750001 0.018796682 4278255360
0.023709429 0.031681884 0.018704263 4278255360
0.023709429 0.031681884 0.018704263 4294952960
-0.023711033 0.031670563 0.018716553 4278255360
-0.023256272 0.031750001 0.018714769 4278255360
-0.02277601 0.031749997 0.018757468 4278255360
-0.021787813 0.031750001 0.018273419 4278255360
-0.021262359 0.031750001 0.01870192 4278255360
-0.020728977 0.031750001 0.018715946 4278255360
-0.0077619338 0.031750005 0.018720642 4278255360
-0.0072909473 0.031750005 0.018750073 4278255360
-0.0067413934 0.031749997 0.018737307 4278255360
0.0043256511 0.031749997 0.01823158 4278255360
0.0047518378 0.031750005 0.018806327 4278255360
0.0053190584 0.031750005 0.019225109 4278255360
0.017767398 0.031750001 0.018788701 4278255360
0.019202355 0.031750005 0.018782437 4278255360
0.019764859 0.031749997 0.018803446 4278255360
0.020251101 0.031750005 0.018759636 4278255360
0.020804873 0.031750005 0.018734997 4278255360
0.021246877 0.031749997 0.018819842 4278255360
0.021772502 0.031750008 0.018794863 4278255360
0.022257775 0.031750008 0.018767325 4294952960
0.023332261 0.031750001 0.018796682 4278255360
0.023709429 0.031681884 0.018704263 4294952960
0.023709429 0.031681884 0.018704263 4294952960
-0.023750005 -0.02771727 0.019271765 4278255360
0.023750005 -0.02779467 0.019239627 4278255360
-0.023750005 -0.027286362 0.019261967 4278255360
0.023750005 -0.0272284 0.019276544 4278255360
0.023750005 -0.0272284 0.019276544 4294952960
-0.023750005 -0.02670978 0.019231392 4278255360
0.023750005 -0.026756141 0.019259945 4278255360
0.023750005 -0.026756141 0.019259945 4294952960
-0.023750005 -0.026292814 0.019229421 4278255360
0.023750005 -0.026232177 0.019265955 4278255360
0.023750005 -0.026232177 0.019265955 4294952960
-0.023750005 -0.025762726 0.019261604 4278255360
0.023750005 -0.025713604 0.019290792 4278255360
0.023750005 -0.025713604 0.019290792 4294952960
-0.023750005 -0.025245363 0.019258831 4278255360
0.023750003 -0.025261303 0.019293746 4278255360
-0.023750005 -0.024747653 0.019333551 4278255360
0.023750005 -0.024757819 0.019235466 4278255360
-0.023750005 -0.024237469 0.019223388 4278255360
0.023750005 -0.02429064 0.019258443 4278255360
-0.023750005 -0.023722336 0.0191905 4278255360
0.023750005 -0.023728857 0.019187154 4278255360
0.023750005 -0.023728857 0.019187154 4278255360
-0.023750005 -0.023224413 0.019284824 4278255360
-0.023750005 -0.023224413 0.019284824 4278255360
0.023750003 -0.023234813 0.01926741 4278255360
-0.023750005 -0.022721205 0.019248096 4278255360
-0.023750005 -0.022721205 0.019248096 4278255360
0.023750005 -0.02265574 0.019259989 4278255360
0.023750005 -0.02265574 0.019259989 4278255360
-0.023750005 -0.022282213 0.019276384 4278255360
-0.023750005 -0.022282213 0.019276384 4278255360
0.023750005 -0.022239866 0.019174721 4278255360
-0.023750005 -0.021778828 0.019225415 4278255360
0.023750005 -0.021778174 0.019243129 4278255360
0.023750005 -0.021778174 0.019243129 4278255360
-0.023750005 -0.021184795 0.019278368 4278255360
-0.023750005 -0.021184795 0.019278368 4278255360
0.023750003 -0.021319462 0.019228609 4278255360
-0.023750005 -0.020757638 0.019224741 4278255360
0.023750005 -0.020753829 0.019257352 4278255360
-0.023750005 -0.020238008 0.01922291 4278255360
0.023750005 -0.020295123 0.019259937 4278255360
-0.023750003 -0.019743377 0.019311395 4278255360
-0.023750003 -0.019743377 0.019311395 4278255360
-0.023750003 -0.019743377 0.019311395 4278255360
0.023750005 -0.019745342 0.019209461 4278255360
-0.023750005 -0.019263517 0.019261548 4278255360
-0.023750005 -0.019263517 0.019261548 4278255360
-0.023750005 -0.019263517 0.019261548 4278255360
0.023750005 -0.019263972 0.019272089 4278255360
-0.023750005 -0.018804912 0.019245999 4278255360
-0.023750005 -0.018804912 0.019245999 4278255360
-0.023750005 -0.018804912 0.019245999 4278255360
0.023750005 -0.018706769 0.01920037 4278255360
-0.023750005 -0.018221127 0.019248374 4278255360
-0.023750005 -0.018221127 0.019248374 4278255360
0.023750005 -0.018259941 0.019184122 4278255360
-0.023750005 -0.017740324 0.019237339 4278255360
-0.023750005 -0.017740324 0.019237339 4278255360
0.023750003 -0.017811293 0.019247724 4278255360
-0.023750005 -0.017208735 0.019240357 4278255360
-0.023750005 -0.017208735 0.019240357 4278255360
0.023750003 -0.017261483 0.019250227 4278255360
0.023750003 -0.017261483 0.019250227 4278255360
-0.023750005 -0.016788863 0.019258616 4278255360
-0.023750005 -0.016788863 0.019258616 4278255360
0.023750005 -0.016758319 0.019243412 4278255360
0.023750005 -0.016758319 0.019243412 4278255360
-0.023750005 -0.016231984 0.019262448 4278255360
-0.023750005 -0.016231984 0.019262448 4278255360
0.023750005 -0.016234701 0.019353231 4278255360
-0.023750005 -0.015779089 0.019291364 4278255360
-0.023750005 -0.015779089 0.019291364 4278255360
0.023750005 -0.015761916 0.019241557 4278255360
-0.023750005 -0.015307681 0.019247299 4278255360
-0.023750005 -0.015307681 0.019247299 4278255360
0.023750005 -0.015295488 0.019244103 4278255360
0.023750005 -0.015295488 0.019244103 4278255360
-0.023750005 -0.014775084 0.019253006 4278255360
-0.023750005 -0.014775084 0.019253006 4278255360
0.023750005 -0.014737232 0.019262148 4278255360
0.023750005 -0.014737232 0.019262148 4278255360
-0.023750005 -0.014261309 0.019207593 4278255360
-0.023750005 -0.014261309 0.019207593 4278255360
0.023750005 -0.014242497 0.019239645 4278255360
0.023750005 -0.014242497 0.019239645 4278255360
-0.023750005 -0.013771402 0.019256974 4278255360
-0.023750005 -0.013771402 0.019256974 4278255360
0.023750005 -0.013778517 0.019271392 4278255360
0.023750005 -0.013778517 0.019271392 4278255360
-0.023750005 -0.013276138 0.019241801 4278255360
-0.023750005 -0.013276138 0.019241801 4278255360
0.023750005 -0.013300555 0.019224856 4278255360
0.023750005 -0.013300555 0.019224856 4278255360
-0.023750005 -0.012701919 0.019312618 4278255360
0.023750005 -0.012804636 0.019330643 4278255360
0.023750005 -0.012804636 0.019330643 4278255360
-0.023750005 -0.012262356 0.019223506 4278255360
0.023750005 -0.012301381 0.019264378 4278255360
0.023750005 -0.012301381 0.019264378 4278255360
-0.023750005 -0.011741081 0.019275405 4278255360
0.023750005 -0.01172245 0.019238506 4278255360
0.023750005 -0.01172245 0.019238506 4278255360
-0.023750005 -0.011262907 0.019270472 4278255360
0.023750005 -0.01126635 0.019280368 4278255360
0.023750005 -0.01126635 0.019280368 4278255360
-0.023750005 -0.010758515 0.01923399 4278255360
0.023750005 -0.010811455 0.019269254 4278255360
0.023750005 -0.010811455 0.019269254 4278255360
-0.023750005 -0.010273283 0.01921414 4278255360
0.023750005 -0.01033041 0.019285358 4278255360
-0.023750005 -0.0097221173 0.019259155 4278255360
0.023750005 -0.0097985528 0.019261489 4278255360
-0.023750005 -0.0091850869 0.019225715 4278255360
0.023750005 -0.0093118167 0.01929331 4278255360
-0.023750005 -0.0087692821 0.019261317 4278255360
-0.023750005 -0.0087692821 0.019261317 4278255360
0.023750005 -0.008798142 0.019186189 4278255360
-0.023750005 -0.0082566924 0.019226119 4278255360
-0.023750005 -0.0082566924 0.019226119 4278255360
0.023750005 -0.0082168635 0.019266972 4278255360
-0.023750005 -0.0076780417 0.019272195 4278255360
-0.023750005 -0.0076780417 0.019272195 4278255360
0.023750005 -0.0077653658 0.019237941 4278255360
-0.023750005 -0.0072553298 0.019226141 4278255360
0.023750005 -0.0073095504 0.019212002 4278255360
-0.023750005 -0.006752254 0.019254858 4278255360
0.023750005 -0.0067575425 0.01927753 4278255360
-0.023750005 -0.0062387823 0.019226599 4278255360
0.023750005 -0.0062343515 0.019287845 4278255360
-0.023750005 -0.0057461229 0.019272991 4278255360
0.023750005 -0.0057240943 0.019236583 4278255360
-0.023750005 -0.0052648564 0.019229177 4278255360
0.023750005 -0.0052363062 0.01923424 4278255360
-0.023750005 -0.0047461633 0.019262556 4278255360
0.023750005 -0.0047353306 0.019166911 4278255360
-0.023750005 -0.0042711864 0.019235905 4278255360
-0.023750005 -0.0042711864 0.019235905 4278255360
0.023750005 -0.0042778393 0.019215669 4278255360
-0.023750005 -0.0037818938 0.019207679 4278255360
-0.023750005 -0.0037818938 0.019207679 4278255360
0.023750005 -0.0037020452 0.019281045 4278255360
-0.023750005 -0.003246 0.019283045 4278255360
-0.023750005 -0.003246 0.019283045 4278255360
0.023750005 -0.0032629573 0.019214947 4278255360
-0.023750005 -0.0027266906 0.019243149 4278255360
0.023750005 -0.0027654551 0.019302798 4278255360
-0.023750005 -0.0022519943 0.019253915 4278255360
0.023750005 -0.0022005134 0.01923159 4278255360
-0.023750005 -0.0017544832 0.019251307 4278255360
-0.023750005 -0.0017544832 0.019251307 4278255360
0.023750005 -0.0017025656 0.0192529 4278255360
-0.023750005 -0.0012839239 0.019234 4278255360
-0.023750005 -0.0012839239 0.019234 4278255360
0.023750005 -0.0012582819 0.019320002 4278255360
-0.023750005 -0.00068850303 0.019204456 4278255360
-0.023750005 -0.00068850303 0.019204456 4278255360
0.023750005 -0.00076325965 0.019336922 4278255360
-0.023750005 -0.00029141168 0.019224763 4278255360
0.023750005 -0.00027465611 0.019278461 4278255360
-0.023750005 0.00023372988 0.019271437 4278255360
-0.023750005 0.00023372988 0.019271437 4278255360
0.023750005 0.00029028277 0.019240133 4278255360
-0.023750005 0.0007613069 0.019296801 4278255360
-0.023750005 0.0007613069 0.019296801 4278255360
0.023750005 0.00075266935 0.019249123 4278255360
-0.023750005 0.0011909925 0.019271743 4278255360
0.023750005 0.0012782045 0.019203756 4278255360
-0.023750005 0.0016985262 0.019228045 4278255360
0.023750005 0.0017355386 0.01921081 4278255360
-0.023750005 0.0022436406 0.019264624 4278255360
0.023750005 0.0022622985 0.019219622 4278255360
-0.023750005 0.0027266361 0.019234294 4278255360
0.023750005 0.00274958 0.019254915 4278255360
-0.023750005 0.0032014921 0.019288244 4278255360
-0.023750005 0.0032014921 0.019288244 4278255360
0.023750005 0.003189001 0.019253135 4278255360
-0.023750005 0.0037540959 0.019239983 4278255360
-0.023750005 0.0037540959 0.019239983 4278255360
0.023750005 0.0037554759 0.019221056 4278255360
-0.023750005 0.0042397361 0.019250533 4278255360
-0.023750005 0.0042397361 0.019250533 4278255360
0.023750005 0.0042635882 0.019192623 4278255360
-0.023750005 0.0047092116 0.019289417 4278255360
-0.023750005 0.0047092116 0.019289417 4278255360
0.023750005 0.0047107148 0.019262502 4278255360
-0.023750005 0.0052242619 0.019258702 4278255360
-0.023750005 0.0052242619 0.019258702 4278255360
0.023750005 0.0052414183 0.019319367 4278255360
0.023750005 0.0052414183 0.019319367 4278255360
-0.023750005 0.00582072 0.019275784 4278255360
-0.023750005 0.00582072 0.019275784 4278255360
0.023750005 0.0058071655 0.019217316 4278255360
0.023750005 0.0058071655 0.019217316 4278255360
-0.023750005 0.0062442045 0.019262608 4278255360
-0.023750005 0.0062442045 0.019262608 4278255360
0.023750005 0.0062310291 0.019268986 4278255360
0.023750005 0.0058071655 0.019217316 4278255360
-0.023750005 0.0067434805 0.019229077 4278255360
-0.023750005 0.0067434805 0.019229077 4278255360
0.023750005 0.0067466283 0.019266784 4278255360
0.023750005 0.0067466283 0.019266784 4278255360
-0.023750005 0.007202981 0.019278323 4278255360
-0.023750005 0.007202981 0.019278323 4278255360
0.023750005 0.0072293174 0.01922763 4278255360
-0.023750005 0.007725494 0.019241203 4278255360
-0.023750005 0.007725494 0.019241203 4278255360
0.023750005 0.0077069094 0.01923522 4278255360
-0.023750005 0.0082370825 0.019232469 4278255360
-0.023750005 0.0082370825 0.019232469 4278255360
0.023750005 0.0083129909 0.019224996 4278255360
0.023750005 0.0083129909 0.019224996 4278255360
-0.023750005 0.0087586185 0.019269435 4278255360
-0.023750005 0.0087586185 0.019269435 4278255360
0.023750005 0.0088389348 0.019295644 4278255360
0.023750005 0.0083129909 0.019224996 4278255360
-0.023750005 0.0091836089 0.019280877 4278255360
-0.023750005 0.0091836089 0.019280877 4278255360
0.023750005 0.0092046801 0.019242723 4278255360
-0.023750005 0.0097505664 0.019293103 4278255360
-0.023750005 0.0097505664 0.019293103 4278255360
0.023750005 0.009722732 0.019231591 4278255360
-0.023750005 0.010193002 0.019221894 4278255360
-0.023750005 0.010193002 0.019221894 4278255360
0.023750005 0.010201091 0.018803135 4278255360
-0.023750005 0.010758104 0.019320376 4278255360
-0.023750005 0.010758104 0.019320376 4278255360
0.023750005 0.010738428 0.019265333 4278255360
-0.023750005 0.011283844 0.019223765 4278255360
-0.023750005 0.011283844 0.019223765 4278255360
0.023750005 0.011270748 0.019262465 4278255360
-0.023750003 0.011779328 0.019261125 4278255360
-0.023750003 0.011779328 0.019261125 4278255360
0.023750005 0.011727744 0.019227769 4278255360
-0.023750005 0.012241362 0.019234838 4278255360
-0.023750005 0.012241362 0.019234838 4278255360
0.023750005 0.012222338 0.019251302 4278255360
-0.023750005 0.012758312 0.019257726 4278255360
0.023750005 0.012750456 0.019215636 4278255360
-0.023750005 0.013217257 0.019302005 4278255360
0.023750005 0.013212875 0.018773904 4278255360
0.023750003 0.013267897 0.019255633 4278255360
-0.023750005 0.01371702 0.019222265 4278255360
0.023750005 0.013749758 0.019248888 4278255360
-0.023750005 0.014266966 0.019266117 4278255360
-0.023750005 0.014755982 0.019204902 4278255360
0.023750005 0.014759459 0.019199876 4278255360
-0.023750005 0.015246772 0.019269854 4278255360
0.023750005 0.015270117 0.01879864 4278255360
-0.023750005 0.015772792 0.019266451 4278255360
0.023750005 0.015679566 0.019267894 4278255360
0.023750005 0.015679566 0.019267894 4294952960
-0.023750005 0.016234254 0.019182237 4278255360
0.023750005 0.016226584 0.019283924 4278255360
-0.023750005 0.016735192 0.019271156 4278255360
0.023750005 0.016792046 0.01920606 4278255360
-0.023750005 0.017256519 0.019240854 4278255360
0.023750005 0.017260775 0.019243546 4278255360
0.023750005 0.017260775 0.019243546 4294952960
-0.023750003 0.017786197 0.019257126 4278255360
0.023750005 0.017780183 0.019254893 4278255360
-0.023750005 0.018276731 0.019325018 4278255360
-0.023750005 0.018276731 0.019325018 4278255360
0.023750005 0.018317997 0.019302879 4278255360
0.023750005 0.018290473 0.018735457 4278255360
-0.023750005 0.018740948 0.019216556 4278255360
-0.023750005 0.018740948 0.019216556 4278255360
-0.023750005 0.019282984 0.01926343 4278255360
0.023750005 0.019276019 0.01922866 4278255360
-0.023750005 0.019759666 0.019298466 4278255360
0.023750005 0.019742751 0.019280344 4278255360
-0.023750005 0.020249406 0.019256255 4278255360
0.023750005 0.020200092 0.018782649 4278255360
0.023750005 0.020270061 0.019272003 4278255360
-0.023750005 0.020770917 0.019221438 4278255360
0.023750005 0.020777725 0.019260878 4278255360
-0.023750005 0.021227511 0.019209955 4278255360
0.023750005 0.021181211 0.019268947 4278255360
-0.023750005 0.021737121 0.019178919 4278255360
0.023750005 0.021771885 0.019288 4278255360
0.023750005 0.021771885 0.019288 4278255360
-0.023750005 0.022241598 0.019302854 4278255360
0.023750002 0.022203958 0.019326961 4278255360
-0.023750005 0.022759842 0.019319719 4278255360
0.023750005 0.022789573 0.019280938 4278255360
-0.023750005 0.023233438 0.019220237 4278255360
0.023750003 0.023247881 0.019243626 4278255360
-0.023750005 0.023734676 0.019212671 4278255360
0.023750005 0.023728838 0.01922103 4278255360
-0.023750005 0.024231976 0.019230688 4278255360
0.023750005 0.024298659 0.018777424 4278255360
-0.023750005 0.024753949 0.019199247 4278255360
0.023750005 0.024725407 0.019270115 4278255360
-0.023750005 0.025197808 0.019205468 4278255360
0.023750005 0.02527336 0.019683352 4278255360
-0.023750005 0.025750661 0.019273026 4278255360
0.023750005 0.025838928 0.019278556 4278255360
-0.023750005 0.026246043 0.019252174 4278255360
-0.023750005 0.026246043 0.019252174 4278255360
0.023750005 0.026281042 0.019239331 4278255360
-0.023750005 0.02669739 0.01924138 4294952960
-0.023750005 0.02669739 0.01924138 4278255360
0.023750005 0.026759706 0.019232588 4294952960
-0.023750005 0.027271457 0.019232742 4294952960
-0.023750005 0.027271457 0.019232742 4278255360
0.023750005 0.027223736 0.019229569 4278255360
0.023750005 0.027223736 0.019229569 4278255360
-0.023750005 0.027780842 0.019248948 4294952960
-0.023750005 0.027780842 0.019248948 4278255360
0.023750003 0.027679469 0.019211922 4278255360
0.023750003 0.027679469 0.019211922 4278255360
-0.023750005 0.028237958 0.019238593 4278255360
0.023750005 0.028271126 0.019238498 4278255360
0.023750005 0.028271126 0.019238498 4278255360
-0.023750005 0.028732453 0.019248292 4278255360
0.023750005 0.028771615 0.019279387 4278255360
0.023750005 0.028771615 0.019279387 4278255360
-0.023750005 0.029257132 0.019309934 4278255360
0.023750005 0.029293656 0.019228762 4278255360
0.023750005 0.029293656 0.019228762 4278255360
-0.023750005 0.029708022 0.019240119 4278255360
0.023750005 0.029721372 0.019260751 4278255360
0.023750005 0.029721372 0.019260751 4278255360
-0.023750005 0.030199284 0.018712971 4278255360
-0.023750003 0.030301929 0.019288113 4278255360
0.023750005 0.030246565 0.019237066 4278255360
-0.023750005 0.030791646 0.019274041 4278255360
-0.023750005 0.030791646 0.019274041 4278255360
0.023750005 0.030749941 0.019203767 4294952960
0.023750005 0.030749941 0.019203767 4278255360
0.023750005 0.030749941 0.019203767 4278255360
-0.023750003 0.031286586 0.018726246 4278255360
-0.023750005 0.031265173 0.019285848 4278255360
-0.023750005 0.031265173 0.019285848 4294952960
-0.022675201 0.031750001 0.019199854 4278255360
-0.011220548 0.031749997 0.019215461 4278255360
-0.0067462055 0.031750001 0.019234916 4278255360
-0.0062634107 0.031750005 0.019263519 4278255360
-0.0052092345 0.031750008 0.019265806 4278255360
-0.0047358801 0.031750008 0.019231251 4278255360
-0.0042294604 0.031750001 0.019256394 4278255360
-0.0037540873 0.031750008 0.019240111 4278255360
-0.0032654447 0.031750001 0.019216817 4278255360
0.00075643999 0.031750005 0.01923462 4278255360
0.0012614403 0.031750008 0.018774886 4278255360
0.022320252 0.031749997 0.019262025 4278255360
0.022756012 0.031750008 0.019264322 4294952960
0.023249846 0.031750005 0.019261539 4278255360
0.023750005 0.031240886 0.01922469 4278255360
0.023750005 0.031240886 0.01922469 4278255360
-0.02370587 0.031672094 0.019223118 4278255360
-0.02370587 0.031672094 0.019223118 4278255360
-0.023257501 0.031750008 0.019192744 4278255360
-0.022675201 0.031750001 0.019199854 4278255360
-0.022258896 0.031750008 0.018778443 4278255360
-0.021794254 0.031750005 0.019278171 4278255360
-0.021270895 0.031750008 0.019244658 4278255360
-0.020724382 0.031749997 0.019180246 4278255360
-0.020213041 0.031750001 0.019236192 4278255360
-0.019754475 0.031750001 0.019258879 4278255360
-0.019242046 0.031750005 0.019214144 4278255360
-0.018716911 0.031750008 0.019257365 4278255360
-0.018232204 0.031750008 0.019270893 4278255360
-0.01771263 0.031749997 0.019259015 4278255360
-0.017249655 0.031750008 0.019212971 4278255360
-0.016736524 0.031750008 0.019292422 4278255360
-0.016222028 0.031749997 0.019274181 4278255360
-0.015762573 0.031750008 0.019212151 4278255360
-0.015223571 0.031749997 0.0192245 4278255360
-0.014743579 0.031750005 0.019205129 4278255360
-0.01425059 0.031750008 0.019260012 4278255360
-0.013751794 0.031750008 0.01929342 4278255360
-0.013221873 0.031750005 0.019293576 4278255360
-0.012772308 0.031749997 0.019186787 4278255360
-0.012243057 0.031750008 0.019225527 4278255360
-0.011720957 0.031750005 0.019210815 4278255360
-0.011220548 0.031749997 0.019215461 4278255360
-0.010756636 0.031750005 0.018789997 4278255360
-0.010252993 0.031750001 0.019295296 4278255360
-0.0097368201 0.031750008 0.019200791 4278255360
-0.0092845615 0.031749997 0.019264011 4278255360
-0.0087393913 0.031750008 0.019268738 4278255360
-0.008244589 0.031750001 0.019205034 4278255360
-0.0077375448 0.031750001 0.019240566 4278255360
-0.0072652646 0.031750001 0.019259391 4278255360
-0.0067462055 0.031750001 0.019234916 4278255360
-0.0062634107 0.031750005 0.019263519 4278255360
-0.0057124905 0.031749997 0.019298499 4278255360
-0.0052092345 0.031750008 0.019265806 4278255360
-0.0047358801 0.031750008 0.019231251 4278255360
-0.0042294604 0.031750001 0.019256394 4278255360
-0.0037540873 0.031750008 0.019240111 4278255360
-0.0032654447 0.031750001 0.019216817 4278255360
-0.0026900247 0.031749997 0.01881291 4278255360
-0.0022532474 0.031750005 0.019306405 4278255360
-0.0017172897 0.031750008 0.019235423 4278255360
-0.0012118279 0.031749997 0.018762201 4278255360
-0.000226348 0.031750005 0.019251337 4278255360
0.00025716174 0.031750001 0.019244533 4278255360
0.00075643999 0.031750005 0.01923462 4278255360
0.0012208894 0.031750005 0.019277668 4278255360
0.0022592207 0.031750005 0.019198643 4278255360
0.0027215867 0.031750001 0.01922472 4278255360
0.0032167181 0.031750001 0.018799961 4278255360
0.0037943658 0.031750008 0.019233463 4278255360
0.0043213414 0.031750001 0.0197042 4278255360
0.0047730822 0.031749997 0.019205615 4278255360
0.0053190584 0.031750005 0.019225109 4278255360
0.0057358523 0.031750008 0.019258123 4278255360
0.0061777383 0.031750008 0.019235929 4278255360
0.0067353807 0.031750008 0.019254405 4278255360
0.0072142603 0.031749997 0.019208468 4278255360
0.0077835121 0.031750001 0.019272676 4278255360
0.008218471 0.031750001 0.019216565 4278255360
0.0087319035 0.031750008 0.019223057 4278255360
0.0092058526 0.031750005 0.019259406 4278255360
0.0097216833 0.031750001 0.019192357 4278255360
0.010282672 0.031750005 0.019215386 4278255360
0.010751283 0.031750001 0.019216312 4278255360
0.011232787 0.031750008 0.019236378 4278255360
0.011681357 0.031750008 0.019274488 4278255360
0.012231272 0.031750008 0.019234052 4278255360
0.012766031 0.031750005 0.019252574 4278255360
0.013213032 0.031750008 0.019260135 4278255360
0.013726072 0.031750008 0.019290471 4278255360
0.014274339 0.031750005 0.018716635 4278255360
0.014725327 0.031750001 0.019227959 4278255360
0.015248119 0.031750008 0.019227123 4278255360
0.015814332 0.031749997 0.019305812 4278255360
0.01625992 0.031749997 0.019307833 4278255360
0.016739098 0.031750005 0.019228233 4278255360
0.017232945 0.031750001 0.019203451 4278255360
0.017794318 0.031750005 0.019262673 4278255360
0.018218042 0.031750008 0.019237347 4278255360
0.018766044 0.031750001 0.019266974 4278255360
0.019250629 0.031750001 0.019232921 4278255360
0.019762147 0.031750005 0.019221002 4278255360
0.020262975 0.031750012 0.019319937 4278255360
0.020688139 0.031749997 0.019291801 4278255360
0.021257371 0.031750008 0.019694461 4278255360
0.021760089 0.031750001 0.019285489 4278255360
0.022320252 0.031749997 0.019262025 4278255360
0.022756012 0.031750008 0.019264322 4278255360
0.023249846 0.031750005 0.019261539 4278255360
0.023696396 0.0316974 0.0192593 4278255360
0.023696396 0.0316974 0.0192593 4294952960
-0.022675201 0.031750001 0.019199854 4278255360
-0.02223709 0.031749997 0.019351989 4278255360
-0.021270895 0.031750008 0.019244658 4278255360
-0.020724382 0.031749997 0.019180246 4278255360
0.0053190584 0.031750005 0.019225109 4278255360
0.018218042 0.031750008 0.019237347 4278255360
0.018766044 0.031750001 0.019266974 4278255360
0.019762147 0.031750005 0.019221002 4278255360
0.020262975 0.031750012 0.019319937 4278255360
0.020688139 0.031749997 0.019291801 4278255360
0.021257371 0.031750008 0.019694461 4278255360
0.021760089 0.031750001 0.019285489 4294952960
0.022320252 0.031749997 0.019262025 4294952960
0.022756012 0.031750008 0.019264322 4278255360
0.023249846 0.031750005 0.019261539 4294952960
0.023696396 0.0316974 0.0192593 4294952960
0.023696396 0.0316974 0.0192593 4294952960
-0.023750005 -0.028241418 0.019786321 4278255360
0.023750005 -0.028222876 0.019771865 4278255360
-0.023750005 -0.027773211 0.019712124 4278255360
0.023750003 -0.027794849 0.019743895 4278255360
-0.023750005 -0.027281269 0.019778708 4278255360
0.023750005 -0.027250437 0.019802613 4278255360
-0.023750005 -0.026689675 0.019720111 4278255360
0.023750005 -0.026774239 0.019695777 4278255360
0.023750005 -0.026774239 0.019695777 4278255360
-0.023750005 -0.026267305 0.019783422 4278255360
0.023750005 -0.026245806 0.019769477 4278255360
0.023750005 -0.026245806 0.019769477 4278255360
-0.023750005 -0.025742702 0.019733738 4278255360
0.023750005 -0.025744291 0.019737378 4278255360
0.023750005 -0.025744291 0.019737378 4278255360
-0.023750005 -0.025257776 0.019737935 4278255360
0.023750005 -0.025229272 0.019769559 4278255360
-0.023750005 -0.02473828 0.019720415 4278255360
0.023750005 -0.024784718 0.019737689 4278255360
-0.023750005 -0.024282034 0.019736933 4278255360
0.023750005 -0.024293045 0.019747613 4278255360
-0.023750005 -0.023689769 0.019747831 4278255360
0.023750005 -0.023759866 0.019774204 4278255360
0.023750005 -0.023759866 0.019774204 4278255360
-0.023750005 -0.02330509 0.019792421 4278255360
-0.023750005 -0.02330509 0.019792421 4278255360
0.023750005 -0.023283243 0.019778637 4278255360
-0.023750005 -0.022799838 0.019759569 4278255360
0.023750005 -0.022707514 0.019720461 4278255360
0.023750005 -0.022707514 0.019720461 4278255360
-0.023750005 -0.022277258 0.019734392 4278255360
0.023750005 -0.022257326 0.019680072 4278255360
0.023750005 -0.022257326 0.019680072 4278255360
-0.023750005 -0.021748073 0.01972669 4278255360
0.023750005 -0.021717727 0.019738203 4278255360
0.023750005 -0.021717727 0.019738203 4278255360
-0.023750005 -0.021247204 0.019709732 4278255360
0.023750005 -0.021180779 0.01973599 4278255360
-0.023750005 -0.020695616 0.019710183 4278255360
0.023750005 -0.020783735 0.019727275 4278255360
0.023750005 -0.020783735 0.019727275 4278255360
-0.023750005 -0.020239342 0.019765858 4278255360
-0.023750005 -0.020239342 0.019765858 4278255360
0.023750005 -0.02024691 0.0197463 4278255360
-0.023750005 -0.019790757 0.019739509 4278255360
-0.023750005 -0.019790757 0.019739509 4278255360
0.023750005 -0.019734148 0.01979881 4278255360
-0.023750005 -0.019214315 0.019761303 4278255360
-0.023750005 -0.019214315 0.019761303 4278255360
-0.023750005 -0.019214315 0.019761303 4278255360
0.023750005 -0.019256819 0.019741954 4278255360
-0.023750005 -0.018782668 0.019785205 4278255360
-0.023750005 -0.018782668 0.019785205 4278255360
-0.023750005 -0.018782668 0.019785205 4278255360
0.023750005 -0.018717373 0.01972051 4278255360
-0.023750005 -0.0182571 0.019767428 4278255360
-0.023750005 -0.0182571 0.019767428 4278255360
-0.023750005 -0.0182571 0.019767428 4278255360
0.023750005 -0.018229887 0.019715961 4278255360
-0.023750005 -0.017758032 0.019773116 4278255360
-0.023750005 -0.017758032 0.019773116 4278255360
0.023750005 -0.017726406 0.019726789 4278255360
-0.023750005 -0.017207697 0.019743878 4278255360
-0.023750005 -0.017207697 0.019743878 4278255360
0.023750005 -0.017311662 0.019701827 4278255360
0.023750005 -0.017311662 0.019701827 4278255360
-0.023750005 -0.016742414 0.019780565 4278255360
-0.023750005 -0.016742414 0.019780565 4278255360
0.023750005 -0.016755294 0.019784689 4278255360
-0.023750005 -0.016245356 0.019739063 4278255360
-0.023750005 -0.016245356 0.019739063 4278255360
0.023750005 -0.016281946 0.019782707 4278255360
0.023750005 -0.016281946 0.019782707 4278255360
-0.023750005 -0.015745034 0.0197831 4278255360
-0.023750005 -0.015745034 0.0197831 4278255360
0.023750005 -0.015760187 0.019745627 4278255360
-0.023750005 -0.015324791 0.019743945 4278255360
-0.023750005 -0.015324791 0.019743945 4278255360
0.023750005 -0.015298719 0.019777212 4278255360
0.023750005 -0.015298719 0.019777212 4278255360
-0.023750005 -0.014720101 0.019778917 4278255360
-0.023750005 -0.014720101 0.019778917 4278255360
0.023750005 -0.014779408 0.019742636 4278255360
0.023750005 -0.014779408 0.019742636 4278255360
-0.023750005 -0.014179559 0.019745214 4278255360
-0.023750005 -0.014179559 0.019745214 4278255360
0.023750005 -0.014242834 0.019774999 4278255360
0.023750005 -0.014242834 0.019774999 4278255360
-0.023750005 -0.0137453 0.019794665 4278255360
-0.023750005 -0.0137453 0.019794665 4278255360
0.023750005 -0.013677302 0.01968598 4278255360
0.023750005 -0.013677302 0.01968598 4278255360
-0.023750005 -0.013227207 0.019732723 4278255360
0.023750005 -0.013270671 0.019791268 4278255360
0.023750005 -0.013270671 0.019791268 4278255360
-0.023750002 -0.012759791 0.01978706 4278255360
0.023750005 -0.01274867 0.019726925 4278255360
0.023750005 -0.01274867 0.019726925 4278255360
-0.023750005 -0.012253123 0.019753369 4278255360
0.023750005 -0.012254878 0.019715901 4278255360
0.023750005 -0.012254878 0.019715901 4278255360
-0.023750005 -0.011768277 0.019789342 4278255360
0.023750005 -0.01176246 0.019734237 4278255360
0.023750005 -0.01176246 0.019734237 4278255360
-0.023750005 -0.011267919 0.019777441 4278255360
0.023750005 -0.011249135 0.019743564 4278255360
0.023750005 -0.01126635 0.019280368 4278255360
-0.023750005 -0.010781223 0.019774482 4278255360
0.023750005 -0.010792417 0.019724376 4278255360
-0.023750005 -0.010251039 0.01974134 4278255360
0.023750005 -0.010202113 0.019772073 4278255360
-0.023750005 -0.0097281169 0.019708334 4278255360
0.023750005 -0.0097095547 0.019743999 4278255360
-0.023750005 -0.0091752931 0.019759027 4278255360
0.023750005 -0.0092544639 0.019814242 4278255360
-0.023750005 -0.0087799178 0.019759022 4278255360
0.023750005 -0.008787971 0.019772887 4278255360
-0.023750005 -0.0082152439 0.019746577 4278255360
-0.023750005 -0.0082152439 0.019746577 4278255360
0.023750005 -0.0082327193 0.019766884 4278255360
-0.023750005 -0.0077851736 0.019770408 4278255360
-0.023750005 -0.0077851736 0.019770408 4278255360
0.023750005 -0.0077398121 0.019787272 4278255360
-0.023750005 -0.0072528915 0.019687897 4278255360
0.023750005 -0.0072697462 0.019770216 4278255360
-0.023750005 -0.0067379992 0.019754274 4278255360
0.023750005 -0.006751372 0.019728245 4278255360
-0.023750005 -0.0062163994 0.019744921 4278255360
0.023750005 -0.0062303827 0.019754389 4278255360
-0.023750005 -0.0058189826 0.01976311 4278255360
