# .PCD v0.7 - Point Cloud Data file format
VERSION 0.7
FIELDS x y z
SIZE 4 4 4
TYPE F F F
COUNT 1 1 1
WIDTH 1398
HEIGHT 1
VIEWPOINT 0 0 0 1 0 0 0
POINTS 1398
DATA ascii
0.11629863 0.10726302 0.022812959
0.11675756 0.1072242 0.022798168
0.11722382 0.10727892 0.022736806
0.11771123 0.10724147 0.022771737
0.11826968 0.10723308 0.022774946
0.11876391 0.10727552 0.022764739
0.1192812 0.10723537 0.022755871
0.11978833 0.10723966 0.022738479
0.12021363 0.10727297 0.0227286
0.12071818 0.10722881 0.022726074
0.12124886 0.10724748 0.022788702
0.12170339 0.107287 0.022741722
0.1221707 0.10743526 0.022820033
0.12269485 0.1074362 0.0229031
0.12326548 0.10725413 0.022944689
0.12375828 0.10726806 0.022967305
0.12425952 0.1073428 0.022801999
0.1247161 0.10726965 0.022889575
0.12524675 0.1072563 0.022850053
0.12574072 0.10725493 0.022797734
0.12623057 0.10727441 0.022773176
0.12658411 0.10724337 0.022733347
0.062931947 0.10773078 0.022703188
0.063312829 0.10776754 0.022761047
0.063812196 0.10768158 0.022883227
0.064263165 0.10780939 0.022775522
0.064746253 0.10773382 0.022762988
0.065241463 0.10772342 0.022718668
0.065732569 0.10776038 0.022651166
0.066251859 0.10774497 0.022708364
0.066739313 0.10771213 0.022847835
0.067301333 0.10772401 0.022924017
0.067737319 0.10773835 0.022902859
0.068230622 0.10775494 0.022791333
0.068730444 0.10773996 0.022767177
0.069273509 0.1077434 0.022704199
0.069763288 0.107735 0.022743843
0.070238821 0.10771649 0.022750704
0.070756495 0.10771145 0.022715757
0.071242273 0.10772905 0.022707323
0.071716391 0.10773884 0.022745587
0.072259963 0.10773872 0.022747874
0.072737992 0.10773437 0.022714498
0.073260061 0.10774831 0.02271636
0.073757298 0.10771812 0.022763778
0.074302316 0.10774302 0.022796445
0.074806169 0.10777533 0.0227494
0.075271338 0.10775347 0.022695649
0.07576181 0.1077598 0.022746282
0.076256491 0.10775803 0.022748983
0.076759771 0.10774036 0.022754394
0.077246331 0.10774008 0.022760924
0.077749193 0.10775578 0.022711162
0.078259088 0.10776301 0.022685304
0.078717299 0.10776811 0.0227158
0.079228953 0.1077377 0.02271555
0.079697534 0.10779063 0.022756794
0.080268338 0.10771801 0.022814816
0.080751576 0.10771842 0.022809777
0.081278205 0.10773337 0.02282645
0.081762053 0.10773852 0.022829838
0.082286388 0.10775731 0.022763634
0.082735486 0.10771178 0.022804443
0.083264694 0.10773786 0.022753486
0.08369942 0.10775346 0.022838082
0.084241107 0.10772412 0.022760037
0.08470206 0.10772777 0.022776851
0.085280143 0.10773135 0.02279635
0.085776381 0.10773396 0.022742542
0.08625415 0.10773636 0.022802677
0.086761013 0.1077593 0.022753878
0.087259829 0.10774448 0.022691175
0.08775726 0.10771132 0.02276789
0.088239424 0.10773523 0.022776188
0.088756494 0.10772455 0.022808036
0.089270636 0.10774966 0.022810431
0.089751877 0.10769983 0.022835432
0.090257056 0.10774661 0.022841217
0.090765566 0.10772741 0.022825241
0.091238655 0.10774196 0.022848491
0.091775492 0.10771689 0.022835672
0.092229992 0.10774259 0.02284511
0.092737563 0.10772089 0.022836713
0.093270302 0.10776804 0.022814475
0.093748353 0.10771405 0.022823276
0.094245002 0.10777326 0.022814555
0.094722532 0.10775793 0.022768144
0.095281862 0.10775821 0.022758473
0.095717758 0.10776505 0.022754064
0.096235961 0.10776727 0.022793433
0.096732832 0.10773078 0.022860367
0.097252779 0.10772999 0.022838632
0.097782545 0.107755 0.022775048
0.098306879 0.10777804 0.022838352
0.098796345 0.10774567 0.022837115
0.099210866 0.10768041 0.022884803
0.099768355 0.10768421 0.022952447
0.10025145 0.10775352 0.022884402
0.10071584 0.10773085 0.022851463
0.10127979 0.10776319 0.022824291
0.10180259 0.10771653 0.022823544
0.10225421 0.1077328 0.022837386
0.10272083 0.10779006 0.022812592
0.10326076 0.10777206 0.022798963
0.10371394 0.10776817 0.022769621
0.10427479 0.10774645 0.022790171
0.10472586 0.10774719 0.022784742
0.10528741 0.1077418 0.022814931
0.10579236 0.10778506 0.0228067
0.10625475 0.10774922 0.02280139
0.10668697 0.10775133 0.022833059
0.10722995 0.10775579 0.022855675
0.10776975 0.10774263 0.022855947
0.10827302 0.10768426 0.022851484
0.10875698 0.10781939 0.0227856
0.10926706 0.107783 0.022761203
0.1097537 0.1077219 0.022746738
0.11027107 0.1077256 0.022727424
0.11074746 0.10776174 0.022804638
0.11124176 0.10770342 0.022833657
0.11173477 0.10778455 0.022834545
0.1122693 0.10769639 0.022868382
0.11270174 0.10779452 0.022831419
0.11326834 0.1077537 0.022899672
0.11372948 0.10772555 0.022853373
0.11419952 0.10774305 0.022951076
0.11472689 0.10772341 0.022931261
0.1152883 0.10778316 0.022861388
0.11569662 0.10773679 0.022884339
0.11628107 0.1077206 0.022871172
0.1167611 0.10774025 0.022826673
0.11727919 0.10771133 0.022805221
0.11775067 0.10771608 0.022779457
0.11823571 0.10773624 0.022823118
0.11873273 0.10775186 0.022738913
0.11924914 0.10772943 0.022764631
0.11978064 0.10773666 0.022737565
0.12026688 0.10774342 0.022702489
0.12075489 0.10772415 0.022762313
0.12128543 0.1077207 0.022796584
0.12176356 0.10773329 0.022837883
0.12215343 0.10774112 0.022864647
0.12272795 0.10777373 0.022923935
0.12325006 0.10768969 0.022969102
0.12374663 0.1078335 0.02294758
0.12432057 0.10777739 0.022890605
0.12476664 0.10772681 0.022821153
0.1252743 0.10772223 0.022840539
0.12572266 0.10773771 0.022786772
0.12621079 0.10773465 0.022778848
0.12660854 0.10773174 0.022787355
0.06297531 0.10821863 0.022668252
0.063315079 0.10820567 0.02277494
0.063801482 0.10824706 0.022757104
0.064276263 0.10828079 0.022749886
0.064745054 0.10825498 0.022736443
0.0652458 0.10821761 0.022680053
0.065696947 0.10828817 0.022710551
0.06623847 0.10824852 0.022739526
0.066731326 0.10825287 0.022914255
0.067158304 0.10816006 0.022936592
0.067922071 0.10808695 0.022864595
0.068357557 0.10823977 0.022744035
0.068770483 0.10817675 0.022732133
0.069216914 0.10827275 0.022733411
0.06973964 0.1082378 0.02272056
0.070244826 0.1082451 0.022707015
0.070750467 0.10827025 0.022697294
0.071253352 0.10827571 0.022699203
0.071735866 0.10823904 0.02275243
0.072278276 0.1082585 0.022726143
0.072773933 0.10823722 0.022753567
0.073258817 0.10826708 0.022741362
0.073762581 0.10824835 0.022766635
0.074232057 0.10828123 0.022816688
0.074739642 0.10822703 0.022771174
0.07519348 0.10826276 0.022745963
0.075713053 0.10824481 0.022746168
0.076275572 0.1082297 0.022726184
0.076738417 0.10824738 0.022739433
0.077276461 0.10825747 0.022692338
0.077770799 0.10825584 0.02272871
0.078242697 0.10825389 0.022720374
0.078719713 0.10823331 0.022742493
0.079283156 0.10827187 0.0227299
0.079764612 0.10822193 0.022716604
0.080248922 0.10826377 0.022720054
0.08070758 0.10826652 0.022770472
0.081217185 0.10826279 0.02281514
0.081745952 0.10821037 0.022798477
0.08222124 0.10825486 0.02282971
0.082771741 0.10830387 0.022873363
0.083231419 0.10826351 0.022888478
0.08379253 0.10825061 0.022822883
0.084298275 0.10826428 0.022710573
0.08475861 0.10819869 0.022830456
0.085228682 0.10825896 0.022787398
0.085765198 0.10827219 0.022751581
0.086289212 0.10828631 0.022746105
0.08675392 0.10828992 0.022716327
0.087240912 0.10824721 0.022731181
0.087754562 0.10827674 0.022726389
0.088233352 0.10823786 0.02275065
0.088722266 0.1082707 0.022824282
0.089262433 0.10825382 0.022792438
0.089719422 0.10822661 0.022775752
0.090279318 0.10819436 0.022737769
0.090741023 0.10823396 0.0227906
0.091229714 0.10826946 0.022830782
0.091708131 0.10828989 0.02286336
0.092278041 0.10830805 0.022827653
0.092714734 0.10825678 0.02282053
0.093245201 0.10823063 0.022820158
0.093741022 0.10830625 0.022801215
0.094252571 0.10825865 0.022771219
0.094753206 0.10829614 0.022738714
0.095265642 0.10825802 0.022707881
0.095762596 0.10828193 0.022792445
0.096297897 0.10828617 0.02279032
0.096783727 0.10825042 0.022838593
0.09724997 0.10824999 0.022852402
0.097752944 0.10819604 0.022812665
0.098221153 0.10820494 0.022915289
0.098661624 0.10813984 0.02299601
0.099239193 0.10814306 0.022952849
0.09971001 0.10827223 0.022960434
0.10029958 0.10815359 0.022898138
0.10080203 0.10823419 0.022810781
0.10126383 0.10825356 0.022819195
0.10174768 0.10827757 0.022815442
0.10223521 0.10824175 0.022813147
0.10274024 0.10824449 0.022824781
0.1033169 0.10824493 0.022803951
0.10373643 0.10827049 0.022801125
0.10428214 0.10820144 0.022781506
0.10476682 0.1082627 0.022809161
0.10524847 0.10824514 0.022778507
0.10573187 0.10824393 0.022776755
0.10624845 0.10827119 0.022760302
0.10675459 0.1082549 0.022806019
0.10727375 0.108249 0.022806045
0.10776237 0.10823566 0.022864742
0.10818703 0.10821738 0.022876412
0.10873403 0.1082656 0.022746075
0.10925566 0.10824274 0.022772649
0.10976841 0.10829217 0.022828916
0.1102821 0.10822836 0.022796869
0.11077735 0.10826627 0.022824094
0.11127233 0.10829018 0.022835178
0.11173119 0.10820539 0.022837173
0.11230548 0.10823251 0.022852441
0.11277393 0.10824654 0.022839297
0.11328872 0.10827012 0.022823278
0.11377945 0.10826284 0.022854783
0.11428425 0.10827826 0.022857713
0.11473448 0.1082401 0.022817364
0.11524441 0.10830116 0.022782911
0.11577282 0.10823745 0.022735914
0.11623473 0.10827347 0.022836925
0.11672238 0.10823237 0.022827046
0.11725191 0.10825246 0.022829939
0.11773298 0.10829692 0.022812966
0.11828209 0.10825492 0.022771299
0.11873867 0.10827949 0.022738652
0.11926738 0.10826291 0.022730464
0.1197996 0.10827412 0.022751195
0.12024633 0.10828622 0.02273399
0.12073265 0.10827509 0.022804648
0.1212205 0.10826098 0.022809695
0.12170797 0.1082542 0.022828495
0.12222807 0.10823615 0.022914018
0.12277484 0.10824548 0.022929018
0.12322936 0.10820901 0.022922747
0.12368657 0.10825089 0.022944067
0.12423545 0.10821448 0.022972204
0.12474673 0.10821368 0.022886164
0.12527481 0.10823708 0.022804085
0.12575923 0.10826174 0.022789907
0.12622309 0.10824163 0.022734988
0.062903345 0.10865384 0.022609025
0.063293941 0.10868741 0.022691993
0.063803025 0.10872255 0.022783335
0.064263113 0.10874106 0.022795698
0.064749554 0.10870094 0.022767173
0.06525702 0.10869125 0.02276325
0.065660737 0.1087482 0.022798806
0.066268004 0.10871627 0.022868225
0.066705532 0.10872844 0.022956023
0.068792693 0.10868052 0.022748347
0.06929712 0.10873941 0.022667732
0.069711067 0.10876302 0.022603109
0.070234612 0.10871293 0.022671778
0.070740752 0.10877065 0.022708328
0.071266949 0.10877121 0.022685677
0.071747229 0.10874359 0.022732098
0.072282553 0.10874356 0.022794912
0.07276959 0.10875422 0.022808783
0.07318566 0.10875238 0.02282967
0.073731579 0.10870532 0.022977225
0.074379221 0.10856366 0.022984821
0.075303666 0.10853906 0.022568669
0.075766802 0.10866588 0.022684021
0.07624191 0.10870207 0.022711171
0.076755799 0.10872785 0.022674199
0.077262595 0.10873004 0.022716323
0.077735595 0.10874756 0.022707704
0.078259885 0.10873452 0.022687288
0.07875929 0.1087551 0.022721898
0.079258345 0.10875441 0.022710955
0.079760902 0.10869429 0.022764677
0.080258794 0.10874171 0.022736385
0.08072187 0.10864101 0.022778515
0.081157178 0.10863569 0.022678994
0.081692584 0.10852641 0.022744626
0.082199857 0.10857545 0.022757113
0.082714178 0.1085849 0.02278289
0.083272494 0.10864409 0.022867333
0.083649926 0.10873002 0.022848915
0.084337674 0.10871328 0.02272132
0.084737577 0.10868755 0.022772355
0.085272498 0.10872273 0.022769121
0.085766755 0.10874801 0.022808529
0.08622624 0.10875662 0.022740066
0.08671689 0.10878809 0.022707287
0.087248206 0.10871048 0.022734048
0.087715767 0.10876443 0.02274364
0.08820153 0.10874797 0.02281218
0.088671789 0.1087459 0.022832286
0.08924412 0.10863414 0.022888754
0.090849087 0.10852394 0.022653544
0.091263875 0.10858575 0.022780592
0.091780417 0.10866805 0.022746446
0.092254221 0.10871521 0.022794012
0.092780977 0.10870266 0.022826361
0.093253307 0.10873535 0.022813914
0.093753509 0.1087464 0.022786064
0.094263516 0.10873562 0.02277845
0.094733745 0.10870521 0.022724248
0.095256962 0.10871576 0.02282089
0.095751897 0.10872577 0.022803355
0.096252754 0.10875302 0.022894178
0.096768558 0.10874389 0.022895714
0.097286798 0.10869932 0.022884823
0.097794652 0.1085187 0.022794234
0.10035641 0.10876457 0.022989422
0.10078791 0.10872737 0.022812122
0.10124736 0.10875984 0.022780705
0.1017257 0.10876485 0.022806456
0.10224447 0.10872691 0.022835599
0.10272185 0.10872953 0.022801338
0.1032492 0.10874794 0.022806045
0.10379763 0.10872531 0.022830106
0.10424192 0.10872355 0.022859845
0.10471123 0.10874066 0.022884224
0.1052648 0.10868646 0.022917818
0.10575917 0.10873593 0.022803869
0.10617617 0.10867685 0.022846164
0.1067106 0.10861755 0.022869539
0.10706774 0.10861469 0.022835255
0.10774219 0.10866699 0.022888262
0.10826559 0.108747 0.022928486
0.10874085 0.10877043 0.022775341
0.10924374 0.10876154 0.02280945
0.1097329 0.10878036 0.022783965
0.11028197 0.10873083 0.022825701
0.11076637 0.1087549 0.022832673
0.11125851 0.10875217 0.022850355
0.11179556 0.10873802 0.022855422
0.11226086 0.10875608 0.02283622
0.11276411 0.10870781 0.022844464
0.11324415 0.10873974 0.022832822
0.11372363 0.10874016 0.022805685
0.11423036 0.10862819 0.022766206
0.1148032 0.10862419 0.022696421
0.11529098 0.10869118 0.022719435
0.11577461 0.10871355 0.022735829
0.11629974 0.10872259 0.022774829
0.11677461 0.10873219 0.02283326
0.11725891 0.10874679 0.022820869
0.11776729 0.10876879 0.022831827
0.11825369 0.10873316 0.022815071
0.11876031 0.1087544 0.022757256
0.11926462 0.10872271 0.022721719
0.11972529 0.10876323 0.022731747
0.12021588 0.10875683 0.022756029
0.12074453 0.10879643 0.022824654
0.12126767 0.10873736 0.022837462
0.12172409 0.10873575 0.022832802
0.12215503 0.10876834 0.022965739
0.12266828 0.10875186 0.02295346
0.1232216 0.10877019 0.022970594
0.12358463 0.1086304 0.02297239
0.1246807 0.10872869 0.022951124
0.12527137 0.10876051 0.022859238
0.12577361 0.10874164 0.022795385
0.12622216 0.10874011 0.022719964
0.12660658 0.10893204 0.022537481
0.062870294 0.10930914 0.022538312
0.063258015 0.10929016 0.022739194
0.063710235 0.10922275 0.02280586
0.064299569 0.10922141 0.022848563
0.064785354 0.10925961 0.022813601
0.065181144 0.10925298 0.02280836
0.065697171 0.10923764 0.022850623
0.06629774 0.10906198 0.02296306
0.06895633 0.10922266 0.02265808
0.069307327 0.10925343 0.022699652
0.069701537 0.10917705 0.022677097
0.070312604 0.1092049 0.022679782
0.070783235 0.10923491 0.022721021
0.071268477 0.10927151 0.022709841
0.071776114 0.1092492 0.022822298
0.072283924 0.10921559 0.022789771
0.072819859 0.1092412 0.022709131
0.073128693 0.10915191 0.022692347
0.076332763 0.10922019 0.022660252
0.076783918 0.10923108 0.022697516
0.077280827 0.10926763 0.022717109
0.077742919 0.1092689 0.022701588
0.07825771 0.10926611 0.022729248
0.078732945 0.10924513 0.022728533
0.079239421 0.1092397 0.022762785
0.079685062 0.10925531 0.022777217
0.080190979 0.10922746 0.022870094
0.080651283 0.10922627 0.022936439
0.084840581 0.10922261 0.022785181
0.085239321 0.1092626 0.022836743
0.085722417 0.1092879 0.022813987
0.086270399 0.10924721 0.022761788
0.086723492 0.10929255 0.02273031
0.087251902 0.10922411 0.022740077
0.087697774 0.1092316 0.022794219
0.088277578 0.10922147 0.022857837
0.088658206 0.10922699 0.022946527
0.092831358 0.1092505 0.022921169
0.093298547 0.10928554 0.02282981
0.093819171 0.10923182 0.022825344
0.094244123 0.10921391 0.022826549
0.094739482 0.10928326 0.022810025
0.095252126 0.10927165 0.022806453
0.095705889 0.10922617 0.022851342
0.096220903 0.10931871 0.022946659
0.09664233 0.10919707 0.022929434
0.097016558 0.10902929 0.022899201
0.10131034 0.10921717 0.022814246
0.10176137 0.10926688 0.022807835
0.10225608 0.10926723 0.022828801
0.1027126 0.10923514 0.022805793
0.10329591 0.10926334 0.022826346
0.10376841 0.10920455 0.022843542
0.10418958 0.10926417 0.022851905
0.10468121 0.10926564 0.022891473
0.10525491 0.10923886 0.022790356
0.1055896 0.1090748 0.022831906
0.10788156 0.10907391 0.022852391
0.10825507 0.10917018 0.022882763
0.10877287 0.10928063 0.022862177
0.1092503 0.10929101 0.02279985
0.10973895 0.10923854 0.022805098
0.11024427 0.10929363 0.022822361
0.11074276 0.10924298 0.022817288
0.11125673 0.10923689 0.022834508
0.11180618 0.10927334 0.022835618
0.11225569 0.10927755 0.022829013
0.11271722 0.10920005 0.022815749
0.11331253 0.10922095 0.022831295
0.11368833 0.10916592 0.02276852
0.11583964 0.10910541 0.022716463
0.11623082 0.10917835 0.022752382
0.11677754 0.10919473 0.022811539
0.11724173 0.1092686 0.022831814
0.11773697 0.10925189 0.022818003
0.11826699 0.10926859 0.022817191
0.11876121 0.10924114 0.022828883
0.1192778 0.10926303 0.022776419
0.11976487 0.10923164 0.022737451
0.12025484 0.10924323 0.0228572
0.12072108 0.1092599 0.0228332
0.12128821 0.10919971 0.022809671
0.1217481 0.10917765 0.022889305
0.12247867 0.10904444 0.022993824
0.12486396 0.10922629 0.022947028
0.12528676 0.10925394 0.022878595
0.12572698 0.10923938 0.022813652
0.12621795 0.10923471 0.022756575
0.12673236 0.10925802 0.022572974
0.062890634 0.10983068 0.022658896
0.063212901 0.10969889 0.022680566
0.06373927 0.10976239 0.022747163
0.064264826 0.10974745 0.022734473
0.064748153 0.10970548 0.02276203
0.065160409 0.10972241 0.022758752
0.065540731 0.10951149 0.022864828
0.069316395 0.10973974 0.022598753
0.069575623 0.10980128 0.022523947
0.070360437 0.10966029 0.022597795
0.070720829 0.10970403 0.022691242
0.071218364 0.10976578 0.022726195
0.071640596 0.10973195 0.022859292
0.072145231 0.10956049 0.022875978
0.076407239 0.10960755 0.022762666
0.076756909 0.10967927 0.022728408
0.077253446 0.1097283 0.022693757
0.077713579 0.10977259 0.022702722
0.078239433 0.1097372 0.022720046
0.078727759 0.10973934 0.02272803
0.079248674 0.10972483 0.022790361
0.079762734 0.10974186 0.022819953
0.080251426 0.10972649 0.022887552
0.084978595 0.10973617 0.02266496
0.085292645 0.10975561 0.022823982
0.085765891 0.10972183 0.022791816
0.08622051 0.10974512 0.022777321
0.08672139 0.10975192 0.022727294
0.087266363 0.10970762 0.022745613
0.087710634 0.10974286 0.022871008
0.088167109 0.1097019 0.022911847
0.088535458 0.10950065 0.022919621
0.093311697 0.10974801 0.022809116
0.093761645 0.10973459 0.022820896
0.094236836 0.10971154 0.022828851
0.094698325 0.10978343 0.022806685
0.095208898 0.10975835 0.022843124
0.095761552 0.1097364 0.022921588
0.096214406 0.10972777 0.0229626
0.10139795 0.1097182 0.022906145
0.10171413 0.10974076 0.022846831
0.102248 0.10975121 0.02282235
0.10278795 0.10973669 0.022811407
0.10323907 0.10974894 0.022836268
0.10373688 0.10974465 0.022864321
0.1042513 0.10971702 0.022896132
0.10475803 0.10976747 0.022795424
0.1050624 0.10963722 0.022731528
0.10888162 0.10974974 0.02290331
0.1092841 0.10972587 0.022883167
0.10972618 0.10976545 0.022779986
0.11026554 0.1097649 0.022788512
0.11074258 0.10977323 0.022834003
0.11129908 0.10975364 0.022859585
0.11174591 0.10978471 0.022820842
0.11221102 0.10974364 0.022811435
0.11271127 0.10975083 0.022825338
0.11318767 0.10974679 0.022764219
0.1135146 0.1095049 0.022690542
0.11681941 0.10962883 0.02278243
0.11727648 0.10972252 0.022786772
0.11772228 0.10973363 0.022802019
0.11822313 0.10978614 0.022815417
0.11871543 0.10971329 0.022816774
0.11928427 0.10976366 0.022780022
0.11973216 0.10974553 0.022817742
0.12024646 0.10973892 0.022860276
0.12071387 0.10973993 0.022842357
0.12114155 0.10963174 0.022845082
0.12442998 0.10957282 0.022989597
0.1253003 0.10960629 0.022946527
0.12577929 0.10975575 0.022830712
0.12623268 0.10973904 0.022792168
0.12670468 0.10973326 0.022686562
0.062901676 0.11010532 0.022659209
0.063287534 0.11021306 0.022667998
0.063703194 0.11029906 0.022687616
0.064220794 0.11023233 0.022717176
0.064505942 0.11024281 0.022693386
0.069272324 0.11002603 0.022642117
0.070322014 0.11031728 0.022661472
0.070741594 0.11028617 0.02269998
0.071215957 0.11024161 0.022788782
0.071701311 0.11008513 0.022897115
0.076829448 0.1101284 0.022834577
0.077275619 0.11026012 0.022697669
0.077753916 0.11027692 0.022723701
0.078258507 0.11024706 0.022722816
0.078720085 0.11025799 0.022747844
0.079272412 0.11024963 0.022833826
0.079732798 0.11020941 0.022807298
0.085332245 0.11026423 0.02269393
0.085731141 0.11027579 0.022752352
0.086263232 0.11027273 0.02278088
0.086750031 0.11027234 0.022794941
0.087250024 0.11023369 0.022786254
0.087728858 0.1101721 0.022902088
0.08806619 0.11025578 0.022992317
0.093284935 0.11020557 0.022763597
0.09375722 0.11027777 0.022812281
0.094249986 0.11022997 0.022829501
0.094730996 0.11028886 0.022833746
0.095227517 0.11027379 0.022844482
0.095713735 0.11024431 0.022960238
0.096047968 0.11024138 0.022973828
0.10146505 0.11029464 0.022895083
0.10184118 0.1102705 0.022868857
0.102246 0.11024273 0.02283047
0.10271454 0.11026695 0.022838976
0.1032449 0.1102412 0.022821782
0.10372831 0.110292 0.022886105
0.10421229 0.11021631 0.022914907
0.10899568 0.11016791 0.022927221
0.10937586 0.1103088 0.022942543
0.10975116 0.11024269 0.022806132
0.11030978 0.11027572 0.022804732
0.1107358 0.11024826 0.022860045
0.11125274 0.1102685 0.022838419
0.11174541 0.11025169 0.022794215
0.11218804 0.11025087 0.022757616
0.11275131 0.11026963 0.022770628
0.11311135 0.11027858 0.022669358
0.1169915 0.11002045 0.022992229
0.11725247 0.11011936 0.022902574
0.11777952 0.11022932 0.022843473
0.11827271 0.11026926 0.022771502
0.11874676 0.11025021 0.022823812
0.11928248 0.11024277 0.022787403
0.1197702 0.1102455 0.022809675
0.12014644 0.11017863 0.022835048
0.12546805 0.1101854 0.022954542
0.12580818 0.11018631 0.022876095
0.12626639 0.11025958 0.022795524
0.12676311 0.11031207 0.022742908
0.063306972 0.11075558 0.022715276
0.063768454 0.11070131 0.02264794
0.064111665 0.11088429 0.022590863
0.070295006 0.11074591 0.022709146
0.07076019 0.11074323 0.022730475
0.071040079 0.11070848 0.022707302
0.076854557 0.11090633 0.022516979
0.077279598 0.11074836 0.022663398
0.077727325 0.1107664 0.0227092
0.078255817 0.11073587 0.02273895
0.078730568 0.11074733 0.022805495
0.079250619 0.11071447 0.022786314
0.079610042 0.11076317 0.022898575
0.085335046 0.11064261 0.022764608
0.085767075 0.1107666 0.022809742
0.086256951 0.11075401 0.022792017
0.086708255 0.11078281 0.02276551
0.087242886 0.11076562 0.022797043
0.087585874 0.11081308 0.022795735
0.093383811 0.11070322 0.022799244
0.093756735 0.11077593 0.022789666
0.094277442 0.11071278 0.022816798
0.094747208 0.11077885 0.022847541
0.09523844 0.11075196 0.022859601
0.095760994 0.11072044 0.022960657
0.1014944 0.1106423 0.022884969
0.10172627 0.11086231 0.022857239
0.10225169 0.11072806 0.022813542
0.10274673 0.11074831 0.022847736
0.10328383 0.11074254 0.022786198
0.10369608 0.11074229 0.022830557
0.10411336 0.11076947 0.022954933
0.10929782 0.11075991 0.022968717
0.10976828 0.11071567 0.022848548
0.11018845 0.11078595 0.022803307
0.11072021 0.11075049 0.022842662
0.11129415 0.11077785 0.022814879
0.11177295 0.11077127 0.022825992
0.11224512 0.11074315 0.022770125
0.1127741 0.11061114 0.022697866
0.11775812 0.11068064 0.022925874
0.11824344 0.11077261 0.022811187
0.1187191 0.11076011 0.022818988
0.11924788 0.11073561 0.022767331
0.11971384 0.11075027 0.022790903
0.12007271 0.11062539 0.022805331
0.12547678 0.11071364 0.022947066
0.12586403 0.11071797 0.022868652
0.12629977 0.11075688 0.022771882
0.12671889 0.11069856 0.022790337
0.062686853 0.11131722 0.022503475
0.063190401 0.11124644 0.02251992
0.06383504 0.11133542 0.022694563
0.06413994 0.11122958 0.022622131
0.070271477 0.11123727 0.022851024
0.070721798 0.11125217 0.022607239
0.071047053 0.11113632 0.022659037
0.071733639 0.11134754 0.02292414
0.076847404 0.11123203 0.022578478
0.077253371 0.11122763 0.02270123
0.07773225 0.111242 0.022741714
0.078270428 0.11120249 0.022738844
0.078687675 0.11125854 0.022724494
0.079259329 0.11127196 0.022767635
0.079578906 0.11126975 0.022752937
0.085465707 0.11149575 0.022806657
0.085759208 0.1112733 0.022781972
0.086273812 0.11123627 0.022798739
0.086736001 0.11130141 0.022739174
0.087215044 0.11124636 0.022775074
0.087592088 0.11127951 0.022804355
0.09339276 0.11122966 0.022813195
0.09374664 0.11123867 0.02280041
0.094276957 0.11121485 0.022814821
0.094781272 0.11124265 0.022864508
0.095264927 0.11122613 0.022890024
0.09561345 0.11124319 0.022939596
0.10178196 0.11125172 0.022835502
0.1022312 0.11123199 0.022852322
0.10271452 0.11123385 0.022815013
0.10330278 0.11122853 0.022759844
0.1036838 0.11120369 0.022832785
0.10411409 0.11128661 0.022926601
0.10934559 0.11118744 0.022985229
0.10981305 0.11125231 0.022814602
0.11023267 0.11127086 0.022838829
0.11075055 0.11123542 0.022849984
0.11125648 0.11127844 0.022809723
0.11172417 0.11122229 0.022752304
0.11212315 0.11115412 0.02274083
0.11780809 0.11125568 0.022876928
0.11820859 0.11130715 0.022778304
0.11871945 0.11125746 0.022813249
0.1192405 0.11125142 0.022782581
0.1197257 0.11120873 0.022753807
0.1200605 0.11110902 0.022731427
0.12548281 0.11107934 0.022941887
0.12582272 0.11127286 0.022789869
0.12623771 0.11124489 0.022787375
0.12663983 0.11127142 0.022846088
0.062766135 0.11175407 0.022530001
0.063244104 0.11174315 0.022513591
0.063772753 0.11176353 0.02269331
0.064157411 0.11165141 0.022762807
0.065216675 0.1117973 0.022643536
0.06996461 0.1117755 0.022978175
0.070309617 0.11179069 0.022823002
0.070800476 0.1117586 0.02267506
0.071057007 0.1119443 0.022677798
0.07179293 0.11177234 0.022903161
0.072192192 0.1119104 0.022971414
0.076907516 0.11176542 0.022575246
0.077265561 0.1117271 0.022709865
0.077753097 0.11171297 0.022767182
0.07827761 0.11173387 0.022731107
0.078781091 0.11170909 0.022719784
0.079212815 0.11175461 0.022741238
0.079563469 0.11177241 0.022784645
0.08533591 0.11179185 0.022844398
0.085780807 0.11174777 0.022807783
0.086246252 0.11173884 0.022770582
0.086730048 0.11176006 0.02275989
0.087182641 0.11174405 0.022819923
0.087605409 0.11169772 0.022764808
0.088205084 0.11177216 0.022961717
0.093354285 0.11184112 0.022793572
0.093741573 0.11171341 0.022808136
0.094248623 0.11173617 0.022810714
0.094722867 0.11173942 0.022835251
0.095256597 0.1117468 0.022886226
0.09564697 0.11150001 0.022978524
0.10178324 0.11172131 0.022834476
0.10225438 0.1117382 0.022834187
0.10274092 0.11171123 0.02283271
0.10320921 0.1117128 0.022748953
0.10368791 0.1117315 0.02286366
0.1041145 0.11165047 0.022959044
0.10979558 0.11170549 0.022789849
0.11024521 0.1117903 0.022856301
0.11078833 0.11177291 0.022831608
0.11127897 0.11178047 0.02281595
0.11175358 0.11167302 0.022667397
0.11779574 0.11178017 0.02288889
0.11826114 0.11176112 0.022828054
0.11873233 0.11175747 0.022845626
0.11925123 0.11177167 0.022780299
0.11969857 0.11171066 0.0227548
0.12583062 0.11182508 0.022723615
0.1262958 0.11175456 0.022697162
0.12657046 0.11159194 0.022925735
0.062896207 0.11219744 0.022519946
0.063377962 0.11212818 0.022593763
0.063740939 0.11228332 0.022600954
0.064124718 0.1122117 0.022726666
0.065483078 0.11207524 0.022717737
0.065649971 0.11224405 0.022704884
0.07035844 0.11208048 0.022770904
0.07070154 0.11221656 0.022770043
0.071235754 0.1123165 0.022816988
0.071824118 0.11224218 0.022886485
0.072147742 0.11221667 0.022946188
0.076798037 0.11227014 0.022667868
0.077253662 0.11226133 0.022712318
0.077757053 0.11227309 0.022786628
0.078259096 0.11225475 0.022754641
0.078748807 0.11221783 0.022724187
0.079238884 0.11222535 0.022744097
0.079658903 0.11228827 0.022822171
0.084900282 0.11230785 0.022932835
0.085270762 0.11228923 0.022898488
0.08577776 0.11225721 0.022830663
0.086287521 0.11226883 0.022764951
0.086745001 0.11229534 0.022781309
0.087217763 0.11225682 0.022834083
0.087628603 0.11223413 0.022782518
0.088380612 0.11209375 0.022955703
0.093297549 0.11226397 0.022880742
0.093752377 0.11227619 0.022797599
0.094254777 0.1122597 0.0228185
0.094766177 0.11227527 0.02280633
0.095258072 0.11224917 0.022836899
0.095635623 0.11223255 0.022953551
0.096013732 0.1122314 0.022973262
0.10184127 0.11221677 0.022892252
0.10225286 0.11225691 0.022807879
0.10275183 0.11221433 0.022804312
0.10323375 0.11225954 0.022757042
0.10369038 0.11229053 0.022843331
0.10411961 0.11204286 0.02299137
0.10985082 0.11223405 0.022830341
0.11026379 0.11227905 0.022857158
0.11072996 0.11225642 0.022835618
0.11129045 0.11224376 0.022818323
0.11167222 0.11235223 0.022820247
0.11739783 0.11239031 0.022977391
0.11769172 0.1122423 0.022910118
0.11821744 0.11223658 0.02282571
0.1187385 0.11224086 0.022819739
0.1192371 0.11222079 0.022825874
0.11966952 0.1122551 0.022757344
0.12583837 0.11226801 0.022768399
0.12627253 0.11222224 0.022643548
0.063323788 0.1127128 0.022534462
0.063756175 0.11279685 0.022584792
0.064086229 0.11280625 0.022654142
0.070474029 0.11272276 0.022590622
0.070769504 0.11269758 0.022621337
0.071396023 0.11263961 0.022851603
0.071806327 0.1127929 0.022884103
0.072137333 0.11271499 0.022939935
0.0763212 0.11286843 0.022646086
0.076769494 0.1127658 0.022713708
0.077232532 0.11276157 0.022741077
0.077724926 0.11273526 0.022738704
0.078254037 0.11273057 0.022717269
0.078731991 0.11275247 0.022729168
0.079247266 0.11270872 0.022757199
0.079735816 0.11279581 0.02281699
0.080116913 0.11288296 0.02298726
0.084866241 0.11286476 0.022899169
0.085272439 0.11272167 0.022881437
0.085780807 0.11277935 0.0228331
0.086269386 0.11274007 0.022731496
0.086729653 0.11276907 0.022754584
0.087229811 0.11275329 0.022831237
0.087778285 0.11274417 0.022790138
0.088204563 0.11285807 0.022866193
0.088682212 0.11289918 0.022992803
0.092929929 0.11274093 0.022911981
0.093308076 0.11277795 0.022893887
0.093745179 0.11278205 0.022807427
0.094265036 0.1127628 0.022843588
0.094703503 0.11275584 0.022821987
0.095293075 0.11273744 0.022869796
0.095751494 0.11272454 0.022863694
0.096127801 0.11280945 0.022923036
0.10179331 0.11275105 0.022879513
0.10221417 0.11273349 0.022836484
0.10273476 0.1127388 0.022816557
0.10321981 0.11274683 0.02280036
0.10371444 0.11279976 0.022806166
0.10412559 0.112759 0.022896774
0.10458307 0.11297119 0.022796335
0.10939682 0.11290015 0.022982322
0.10976788 0.11271344 0.022836341
0.11023191 0.11274537 0.022848452
0.11077696 0.11274824 0.022821443
0.11126678 0.11274292 0.02276752
0.11173656 0.11278065 0.022778517
0.11739387 0.11281189 0.022922365
0.11778311 0.11279126 0.022858184
0.11827123 0.11278381 0.022851652
0.11873066 0.1127096 0.022813862
0.11927368 0.11272366 0.022812059
0.11970475 0.1127665 0.022712318
0.12003082 0.11272059 0.022625333
0.12543161 0.11290652 0.022954229
0.1257446 0.11271296 0.022828888
0.12621249 0.11270608 0.022714727
0.063276626 0.11306766 0.022535034
0.063806683 0.11326914 0.022663567
0.064187728 0.11332172 0.022609089
0.070417412 0.11325876 0.022556506
0.070774727 0.11327749 0.022609582
0.071122646 0.11326692 0.022625864
0.071734309 0.11322834 0.022902396
0.072163329 0.11329603 0.022872897
0.07330294 0.11340271 0.022782551
0.07585676 0.11333225 0.022878164
0.076287173 0.11326792 0.022792106
0.076767795 0.11326408 0.022757476
0.077290744 0.11324195 0.022749171
0.077761747 0.11325718 0.022727817
0.078244023 0.11326104 0.022700302
0.078739733 0.11323987 0.022724016
0.079248376 0.11329116 0.022773791
0.079746753 0.1132907 0.022765446
0.080224551 0.11328012 0.022868657
0.084462106 0.11338204 0.022945166
0.084756166 0.11323444 0.022871505
0.085278705 0.11327109 0.022862364
0.085741065 0.11322293 0.022830773
0.086224057 0.11323407 0.022738855
0.086716294 0.11328338 0.022764791
0.087251902 0.11326724 0.022826916
0.08770851 0.11326088 0.022817208
0.088228546 0.11328471 0.022750579
0.088682942 0.11325026 0.022859579
0.089202024 0.11337478 0.02295593
0.08962775 0.11336954 0.022981524
0.092777528 0.11331359 0.022889959
0.093233861 0.11328946 0.022810658
0.093716584 0.11321815 0.022818651
0.094290845 0.11327664 0.022841619
0.094744518 0.1132689 0.022835284
0.095214479 0.11322521 0.022850439
0.095709071 0.1132653 0.022829605
0.096141085 0.11328988 0.02285153
0.10122705 0.11323345 0.022955567
0.1017429 0.11324476 0.022879334
0.10230095 0.11323472 0.022838296
0.10277375 0.11328664 0.022809172
0.10325886 0.11323118 0.02283019
0.10371382 0.11326254 0.022813452
0.10422181 0.11324152 0.022865005
0.10472494 0.11330028 0.022824649
0.10506444 0.11349302 0.022779526
0.10926432 0.11328094 0.022964492
0.10974955 0.11328135 0.022824317
0.11028343 0.11326142 0.022842823
0.11077447 0.11327677 0.022804493
0.11126037 0.1132458 0.022770694
0.11172945 0.11326525 0.022761416
0.11210325 0.113388 0.022685669
0.11689144 0.11349674 0.022908444
0.11729553 0.113361 0.022813242
0.11775514 0.11328043 0.02284186
0.11827045 0.11326779 0.022824833
0.11873391 0.11323462 0.022818742
0.11926126 0.1132534 0.022826787
0.11979536 0.11326455 0.022701463
0.12022164 0.1132347 0.022668909
0.12524793 0.11333804 0.022934023
0.1257465 0.11323526 0.022824802
0.12624995 0.11326361 0.022700485
0.12650892 0.11338622 0.022905342
0.063429318 0.11372551 0.022810699
0.063797042 0.11370921 0.022655262
0.064060748 0.11374725 0.022526221
0.070732854 0.11384043 0.022610856
0.071261838 0.11371754 0.022758147
0.071773469 0.11374489 0.022830181
0.07228975 0.11375653 0.022826223
0.07273145 0.11374164 0.022870302
0.073249884 0.1137745 0.022841642
0.073596142 0.1138083 0.022764554
0.074297979 0.11386003 0.022991255
0.074779265 0.11390738 0.022981171
0.075233206 0.1138567 0.022949556
0.075750537 0.11373562 0.022788173
0.076289959 0.11375728 0.02277022
0.076780818 0.1137542 0.022705559
0.077261366 0.11374804 0.022742152
0.077735983 0.11372783 0.022709116
0.078274526 0.11375454 0.022714203
0.078742832 0.11372691 0.022725364
0.079275094 0.11376449 0.022684731
0.079734951 0.11371812 0.022775134
0.080245756 0.11375225 0.02281286
0.08072225 0.11380893 0.022878414
0.083344832 0.11397405 0.022955678
0.083804086 0.11381067 0.022949506
0.084277324 0.11374683 0.022884535
0.084738225 0.11372563 0.022844272
0.085255273 0.11375055 0.022849981
0.085787311 0.11372611 0.022754893
0.08626426 0.11375836 0.022789894
0.086746261 0.11374404 0.022757564
0.087228395 0.11374047 0.022798626
0.087737396 0.11374332 0.022812799
0.08825931 0.11379112 0.022779338
0.088743873 0.11371417 0.022771016
0.089303486 0.11377653 0.022865878
0.089679085 0.11368237 0.022945702
0.090646267 0.11389492 0.022972863
0.091769591 0.11390609 0.022954106
0.092276417 0.11376214 0.022938022
0.092753626 0.11376396 0.022862906
0.093239315 0.11372057 0.022829304
0.09371607 0.1137135 0.022840332
0.094231077 0.11375542 0.022822034
0.094738342 0.11376503 0.022840502
0.095249712 0.11372232 0.022813495
0.095730476 0.11378178 0.022832789
0.096226506 0.11374564 0.022844704
0.096639819 0.11380892 0.022746706
0.097147532 0.11397609 0.022917649
0.10086 0.11384758 0.022833971
0.10124127 0.11372433 0.022899784
0.10177545 0.11371246 0.02287405
0.1022545 0.1137416 0.02283402
0.10278703 0.11378632 0.022822741
0.10324878 0.11372615 0.022846611
0.1037579 0.11373205 0.022823086
0.10424296 0.11377039 0.022847597
0.10469735 0.11373705 0.022878295
0.10509001 0.11383374 0.022838043
0.10875823 0.11383307 0.022926841
0.10926298 0.11375945 0.022860276
0.10969818 0.11376102 0.022837626
0.11030431 0.11375467 0.022805531
0.11074015 0.11373717 0.022801343
0.11131546 0.11372593 0.022792313
0.11175831 0.11375192 0.022740029
0.1122354 0.11380149 0.022744786
0.11676683 0.11380985 0.022902392
0.11724889 0.11374483 0.02284985
0.11774027 0.11372778 0.022816954
0.11822743 0.11376436 0.022838108
0.11874532 0.11373057 0.022830825
0.11923141 0.11375579 0.022780402
0.11970109 0.11372533 0.022800755
0.12022152 0.11373533 0.022719318
0.12063053 0.11385875 0.022680936
0.12487208 0.11386588 0.022918334
0.12527402 0.11377896 0.022841405
0.12573068 0.11373766 0.022751335
0.12626854 0.11375812 0.022733629
0.12664878 0.11377838 0.022858517
0.063764498 0.11420454 0.02264115
0.064278707 0.11429631 0.022641147
0.070780471 0.1142115 0.022598835
0.071303941 0.11429205 0.022741435
0.0717168 0.11425815 0.022752296
0.072280817 0.11428524 0.022800149
0.07277789 0.11423473 0.022812881
0.073257737 0.11422997 0.022825615
0.073763765 0.11433308 0.022886897
0.074259959 0.11426532 0.022920638
0.074721821 0.11426347 0.022930866
0.075312346 0.11427788 0.02280074
0.075743347 0.11423046 0.022726901
0.076270744 0.11428952 0.022783596
0.076703317 0.11423212 0.022723015
0.077254429 0.11428861 0.022739731
0.077723362 0.1142647 0.022711564
0.078258485 0.11425129 0.022731964
0.078776389 0.11427352 0.022742359
0.079269692 0.11427653 0.022709735
0.079721548 0.11424074 0.022715745
0.080272965 0.11428747 0.022776013
0.080782883 0.11423583 0.022776634
0.081238642 0.1143076 0.022888392
0.081755556 0.11434615 0.022913126
0.082306698 0.11434476 0.02287944
0.082812503 0.11424121 0.022864522
0.083308801 0.114246 0.022894694
0.083823986 0.11429828 0.022880537
0.084240302 0.11427944 0.022828756
0.084722631 0.11424004 0.022844061
0.085254043 0.11425532 0.022833457
0.085757323 0.11419728 0.022780467
0.086233146 0.11425686 0.022778822
0.086765043 0.11426895 0.022771565
0.087232187 0.11425067 0.022796012
0.087699905 0.11426415 0.022819608
0.088249661 0.11423276 0.022763478
0.088707708 0.11425034 0.022751287
0.089225538 0.11425461 0.022821644
0.089760624 0.11421194 0.022851516
0.090205602 0.11427204 0.022855403
0.090744138 0.11432292 0.022903198
0.091263391 0.11418892 0.02290806
0.091757253 0.11423453 0.022947621
0.092306897 0.11426372 0.022833191
0.092752792 0.11425021 0.022832392
0.093269728 0.11426487 0.022849469
0.093736224 0.11424896 0.022832491
0.094252668 0.11425031 0.02280608
0.094724134 0.11429698 0.022833169
0.095245428 0.11426228 0.022832142
0.095765345 0.11425425 0.022833614
0.096256413 0.11429531 0.022838823
0.096712738 0.11415794 0.022841245
0.097204603 0.11423171 0.022856951
0.097639404 0.11439449 0.022936704
0.098213688 0.11439291 0.022836052
0.098673008 0.11440836 0.022864301
0.099234425 0.11433332 0.022886882
0.099762909 0.11431479 0.022911968
0.10025127 0.11433721 0.022898013
0.10076745 0.11423212 0.022935554
0.10129695 0.11419967 0.022919936
0.10180581 0.11423732 0.022846285
0.10228395 0.11423507 0.022849901
0.10279542 0.11426495 0.022823092
0.10320845 0.11427953 0.022830533
0.1037256 0.11427088 0.022839529
0.10427006 0.11426682 0.022852141
0.10477748 0.11426282 0.022868568
0.10520037 0.11425192 0.022891928
0.10568666 0.11438655 0.022893593
0.10603293 0.11448967 0.022889521
0.10790317 0.11433762 0.022969142
0.10821289 0.11429119 0.022929775
0.10873417 0.11431899 0.022870099
0.10926773 0.11424761 0.02283025
0.10974316 0.11428323 0.022817561
0.11028166 0.11426776 0.022769498
0.11076408 0.11425068 0.022822523
0.1112912 0.11423634 0.022803169
0.11176974 0.11424936 0.022747649
0.11225291 0.11425859 0.02279559
0.11265186 0.11433129 0.022742752
0.11324416 0.1143741 0.022972038
0.11538403 0.11449793 0.022736872
0.11589066 0.11444116 0.022864847
0.11623728 0.11428402 0.02283578
0.11677214 0.11429483 0.022817858
0.11723061 0.11430269 0.022817524
0.1177642 0.11428043 0.022804974
0.11823639 0.11428579 0.022799306
0.11875167 0.11423209 0.022828195
0.11923999 0.11424391 0.022774909
0.11974913 0.11427066 0.022798078
0.12027252 0.1142527 0.022763701
0.12070887 0.11423698 0.022679927
0.12123959 0.11435381 0.022778794
0.12439497 0.11429721 0.022943746
0.12483837 0.11422987 0.022846848
0.12524909 0.11423865 0.022808358
0.12578666 0.11427321 0.022736723
0.12628303 0.11425427 0.022749329
0.12663747 0.1142898 0.022720015
0.12715784 0.11434244 0.022950031
0.06376563 0.11467427 0.022626685
0.064293079 0.1147292 0.022774348
0.064607203 0.11477077 0.0227983
0.0707957 0.11473195 0.022689328
0.071300194 0.11480878 0.022691499
0.071758531 0.11474936 0.022705805
0.072222628 0.11476233 0.022753267
0.072740316 0.11476203 0.022816064
0.073278144 0.11471143 0.022802353
0.073746249 0.1147744 0.022833087
0.074209556 0.114746 0.022843216
0.074748039 0.11477073 0.022843625
0.0752367 0.11476766 0.022786135
0.07574039 0.1146991 0.022780819
0.076264299 0.1147766 0.02279985
0.076750301 0.11472703 0.022749674
0.077239856 0.11476579 0.022748537
0.077756144 0.11473925 0.022706466
0.078257374 0.11473395 0.022700094
0.07873439 0.11474565 0.022683
0.079251476 0.11472914 0.022716878
0.079764046 0.11473276 0.022719089
0.080274709 0.11475128 0.022692315
0.080763884 0.1147586 0.022761147
0.081226796 0.11474927 0.02285127
0.0817867 0.11474963 0.022923131
0.082239822 0.11470944 0.022920152
0.082726091 0.11472594 0.02289688
0.083296038 0.11475263 0.022862993
0.083746314 0.11475376 0.022839436
0.084238991 0.11474538 0.022853719
0.084752396 0.11472071 0.022829687
0.085224181 0.11471689 0.022822224
0.085724212 0.11471663 0.022777567
0.086260356 0.11474355 0.022764718
0.086718336 0.1147496 0.02276806
0.087231189 0.11475708 0.022813529
0.087746866 0.11475731 0.022769012
0.088254951 0.11472001 0.022750989
0.088691562 0.11474407 0.022811938
0.089256264 0.11474876 0.022828596
0.089754403 0.1147541 0.022806028
0.090215169 0.11483507 0.022796128
0.090683304 0.11479063 0.022870794
0.091228694 0.11475323 0.022878552
0.091742449 0.11474218 0.022883477
0.092260905 0.11475387 0.022822179
0.09271837 0.11476444 0.022826433
0.093234748 0.11471898 0.022818526
0.093746491 0.11473612 0.022832023
0.094248302 0.11474607 0.022844763
0.0947567 0.11476677 0.022817904
0.09527643 0.11472877 0.022826912
0.095727466 0.1147605 0.022823535
0.096228734 0.11477505 0.022897346
0.096745096 0.11473898 0.022833515
0.097274989 0.11478815 0.022849433
0.097725719 0.11480834 0.022884727
0.09825331 0.11475837 0.022926841
0.098764606 0.11471418 0.022911066
0.099309362 0.11473709 0.022913963
0.099730022 0.11467768 0.022930462
0.10029899 0.11473015 0.022945961
0.100752 0.11473957 0.02291749
0.10131468 0.11472477 0.022909623
0.10177782 0.11474882 0.022852512
0.10226876 0.11470469 0.022843448
0.10271095 0.11475348 0.022823829
0.10324406 0.11472981 0.022820843
0.10370661 0.1147958 0.022815658
0.10420308 0.11477859 0.022856381
0.10472516 0.11470097 0.022854118
0.1053054 0.11474209 0.022871399
0.10576948 0.11474059 0.022904681
0.10620817 0.11470371 0.022844689
0.10669571 0.11478659 0.022893138
0.10729849 0.11481415 0.022886006
0.10781097 0.11477742 0.022852004
0.10827017 0.11477357 0.022836784
0.10871633 0.11477804 0.02282162
0.10927146 0.11474932 0.022818824
0.10974399 0.11472625 0.022806725
0.11023192 0.11473951 0.02278566
0.11074099 0.11474637 0.022821562
0.11124305 0.11471056 0.022819694
0.11174398 0.11471923 0.022779716
0.11221758 0.11475005 0.022777503
0.11271715 0.11474882 0.022782315
0.11325961 0.1147515 0.022947362
0.11373634 0.11488681 0.022954319
0.11434384 0.11480987 0.022975674
0.11478025 0.11469755 0.022904985
0.11525758 0.11472122 0.022847597
0.11575765 0.11476105 0.022790225
0.11625195 0.11474009 0.022776987
0.11673542 0.11473991 0.022826893
0.11728097 0.11475139 0.022844285
0.1177645 0.11477334 0.022777796
0.11822817 0.11476091 0.022814512
0.11870448 0.11472964 0.022817492
0.11923753 0.11471773 0.022797285
0.11971947 0.11474115 0.02280933
0.12028124 0.11471239 0.02278861
0.12078395 0.11471213 0.022762535
0.12120993 0.11472692 0.02274736
0.12165325 0.11484995 0.022752471
0.12339064 0.11496104 0.022867873
0.12386344 0.11491183 0.022799974
0.12424605 0.11480783 0.022827327
0.12475126 0.11472237 0.022826208
0.12520613 0.11474586 0.022801388
0.12575124 0.1147527 0.022754848
0.1262695 0.11478485 0.022745607
0.12672172 0.11475389 0.022788011
0.12713476 0.11476636 0.02290632
0.064609274 0.11509977 0.022802051
0.070454374 0.11531213 0.02278956
0.070763692 0.11522602 0.022766015
0.071336254 0.11524474 0.022743799
0.071749099 0.11527237 0.022672409
0.072250046 0.11526331 0.02272003
0.072712578 0.11526059 0.022756182
0.073226362 0.11521256 0.022790082
0.073731869 0.11525971 0.022742396
0.074256822 0.11527432 0.022735052
0.07473851 0.11525913 0.022725036
0.075265199 0.11524095 0.022798888
0.075779036 0.11526191 0.022772728
0.076280527 0.1152901 0.022738438
0.076746404 0.11522635 0.022728754
0.077230707 0.11527525 0.02276163
0.077757761 0.11526461 0.022692755
0.078274295 0.11526469 0.022695359
0.078722142 0.11527005 0.022709571
0.079251446 0.11526196 0.022713631
0.07973437 0.11524852 0.022713546
0.080217287 0.11528426 0.022731448
0.080696315 0.1152412 0.022776717
0.081221648 0.11528048 0.022813581
0.081683896 0.11530299 0.022887243
0.082225934 0.11522713 0.022917828
0.082728811 0.11527769 0.022906512
0.083253086 0.11529834 0.022937395
0.08375147 0.11519163 0.022873836
0.084226228 0.11526465 0.022809137
0.084692478 0.11526655 0.02281218
0.085236602 0.11526158 0.022834362
0.085722096 0.11526303 0.022776641
0.086220436 0.1152539 0.022726366
0.086718947 0.11524102 0.02279612
0.087254964 0.11524426 0.02273789
0.08772137 0.11525799 0.022756759
0.0881842 0.1152845 0.022812575
0.088716917 0.1152358 0.022826191
0.089234896 0.11522183 0.02280906
0.089761786 0.11525601 0.022812327
0.090246662 0.1152799 0.022789013
0.090754315 0.1152178 0.022831578
0.091241829 0.11520886 0.022799151
0.09177658 0.11523455 0.022799302
0.092237897 0.1152271 0.022824867
0.092735194 0.11528029 0.022838552
0.093269408 0.11524211 0.022795316
0.093757957 0.1152694 0.022766747
0.094257876 0.11527857 0.02276659
0.094747216 0.11526416 0.022814117
0.095263794 0.11521365 0.022811061
0.095733523 0.11527591 0.022837231
0.096261337 0.11523761 0.022885036
0.096777782 0.11523918 0.022886168
0.097217813 0.11526375 0.022867151
0.097729258 0.11526158 0.022864385
0.098257624 0.11521254 0.022880124
0.098762795 0.11528679 0.022837449
0.099294268 0.11523885 0.022862462
0.099816039 0.11531415 0.022858271
0.10026821 0.11526204 0.02290429
0.10076477 0.11524759 0.022886269
0.10125995 0.11525468 0.022884034
0.10172787 0.11524519 0.02283559
0.10226903 0.11523841 0.02283556
0.1027366 0.11526827 0.022807188
0.10327262 0.11528051 0.022802522
0.10373387 0.11526395 0.022822859
0.10426196 0.11521123 0.02286729
0.10475283 0.11532508 0.022886127
0.10525881 0.11528031 0.022861047
0.10573679 0.11523439 0.022913871
0.10626728 0.11527219 0.022897143
0.10677245 0.1152576 0.022873733
0.10723871 0.11527833 0.022838315
0.10775591 0.11530101 0.022827268
0.10831039 0.11525965 0.022828624
0.10880619 0.11527413 0.022791224
0.10922562 0.11525509 0.022765782
0.10974123 0.1152368 0.022770356
0.11028215 0.11524843 0.022847144
0.11072986 0.11522143 0.022794586
0.111215 0.11527308 0.022837989
0.11173928 0.11524318 0.022833169
0.11227494 0.11526319 0.022783166
0.11278125 0.11529182 0.022753764
0.11326034 0.115253 0.022841746
0.11372078 0.11531672 0.022906667
0.11422651 0.11523765 0.022943731
0.11474092 0.11524637 0.022889536
0.11527137 0.11528648 0.022863667
0.1157439 0.115207 0.022831973
0.11628669 0.11519223 0.022797896
0.11680485 0.11525886 0.022815308
0.11725643 0.11526763 0.022798117
0.1177784 0.11522578 0.022760084
0.11824687 0.11526173 0.02280445
0.11871972 0.11524988 0.022824351
0.11920357 0.11526013 0.02282753
0.11971728 0.11522153 0.02281671
0.12026565 0.11526856 0.022797368
0.12074307 0.11527112 0.022797141
0.12121742 0.11525366 0.022764802
0.12173809 0.11527209 0.022775901
0.12225731 0.11527114 0.022818737
0.12277157 0.11529862 0.022807879
0.12321123 0.11526437 0.022807077
0.12375505 0.11528756 0.022835743
0.1242217 0.11523141 0.022794116
0.12470328 0.11522068 0.022825437
0.1252339 0.11529349 0.022774445
0.12575185 0.115231 0.022739921
0.1262724 0.11525605 0.022741428
0.12669238 0.1151741 0.022774065
0.1271003 0.11507452 0.022896837
0.062389802 0.11577991 0.022639386
0.062524684 0.11587562 0.022584945
0.070331022 0.11578266 0.022771057
0.070770226 0.11574392 0.022755276
0.071225241 0.11575445 0.02276375
0.071737386 0.11573676 0.022710074
0.07226406 0.11571897 0.022715995
0.072757639 0.11576394 0.022718497
0.07321956 0.11572675 0.022722377
0.073710769 0.11572864 0.022737997
0.074261747 0.1157318 0.022716591
0.074755207 0.11574803 0.022744032
0.075265013 0.11569788 0.022725442
0.075748824 0.11574117 0.022706425
0.0762586 0.11575927 0.02270568
0.076757573 0.11573029 0.022734838
0.077273503 0.11576589 0.022694701
0.077735037 0.11572506 0.022724021
0.078240313 0.11575815 0.02270589
0.078761391 0.11574763 0.02272395
0.079239912 0.11574534 0.022715421
0.079724744 0.11573401 0.022721877
0.080246001 0.11576459 0.022740809
0.080758698 0.1157005 0.022769066
0.081255883 0.11578441 0.022829836
0.081762053 0.11576578 0.022857595
0.082238629 0.11578018 0.022895964
0.082782909 0.11573751 0.022903597
0.083264098 0.11577795 0.022888064
0.083762378 0.11577132 0.022882955
0.084230609 0.11575627 0.022821767
0.084738344 0.11575 0.02283876
