# .PCD v0.7 - Point Cloud Data file format
VERSION 0.7
FIELDS x y z
SIZE 4 4 4
TYPE F F F
COUNT 1 1 1
WIDTH 1295
HEIGHT 1
VIEWPOINT 0 0 0 1 0 0 0
POINTS 1295
DATA ascii
-0.023722371 -0.011854607 0.01483212
-0.023704538 -0.01133645 0.014776274
-0.023682697 -0.010858004 0.014792429
-0.023652524 -0.010374649 0.014800489
-0.0236811 -0.0098567363 0.014766612
-0.023694864 -0.0093634371 0.014757425
-0.023714745 -0.0088846665 0.014734975
-0.023768781 -0.0082646776 0.014791212
-0.023734787 -0.0078589451 0.014708763
-0.023685871 -0.0073769297 0.01477409
-0.02368772 -0.0068475679 0.014760438
-0.023726502 -0.0063151545 0.014774645
-0.023751961 -0.0058539119 0.014797281
-0.023789162 -0.0053708586 0.014889516
-0.023746116 -0.0036799773 0.014635645
-0.023694733 -0.0032072037 0.014835822
-0.023709072 -0.0028309166 0.014728968
-0.023709074 -0.00208421 0.01453029
-0.023674825 -0.0017521195 0.014662535
-0.023652311 -0.001327989 0.01473506
-0.023617947 -0.00081271806 0.014704609
-0.023617033 -0.0003449081 0.014688359
-0.023639325 0.00010896474 0.014604619
-0.023661667 0.00056304713 0.01452087
-0.023630278 0.0018924876 0.01467772
-0.023565521 0.0022541583 0.014630987
-0.023528656 0.0026759584 0.014657065
-0.023537042 0.0031626169 0.014654069
-0.023484055 0.0036384533 0.014705077
-0.023427181 0.0040622652 0.01473518
-0.022919152 0.031364799 0.014559435
-0.022729982 0.031647526 0.014555094
-0.024041127 -0.015129438 0.014628555
-0.023870802 -0.0081648044 0.014836389
-0.023855599 -0.0077465535 0.014826697
-0.023908876 -0.0073339846 0.014719839
-0.023925014 -0.0068196049 0.014785437
-0.023919772 -0.0063041826 0.014784731
-0.023933625 -0.0058219349 0.0147677
-0.023956329 -0.0053372262 0.014756672
-0.023937616 -0.0048359483 0.014712658
-0.023942852 -0.0043542935 0.014749593
-0.023921374 -0.003811856 0.014739699
-0.023888756 -0.003352311 0.014726334
-0.023860287 -0.0027826908 0.014729185
-0.02381786 -0.0023488612 0.014707251
-0.023833377 -0.0018343122 0.014766067
-0.023881566 -0.0012661838 0.014719816
-0.023873691 -0.00081746269 0.014752091
-0.023922134 -0.00030533399 0.014788188
-0.023821184 0.00017774233 0.014778595
-0.023857631 0.00066603592 0.014800902
-0.023830807 0.0011537737 0.014740455
-0.023825184 0.0016318469 0.014714552
-0.02396352 0.0021810206 0.014723518
-0.024004463 0.0026990513 0.014705855
-0.02400882 0.0031570112 0.01471109
-0.023954893 0.003713055 0.014732748
-0.023970701 0.0041872985 0.01469673
-0.02395012 0.0046334066 0.014702586
-0.023900552 0.0051585664 0.014666309
-0.023929855 0.0056474777 0.014714177
-0.023932243 0.0061739497 0.014698433
-0.023955174 0.0066858055 0.014686115
-0.023907399 0.007196255 0.014696451
-0.023921167 0.0076969359 0.014689295
-0.02392057 0.0081557184 0.014651819
-0.023907242 0.0086241513 0.01462177
-0.023898751 0.009203203 0.014713013
-0.023879929 0.0097226715 0.014681223
-0.02388742 0.010178035 0.014683252
-0.023876304 0.010712611 0.014633902
-0.023853851 0.011237836 0.014672318
-0.023846567 0.011634149 0.014644239
-0.023860227 0.012174005 0.014622264
-0.023882942 0.012627441 0.014632183
-0.023817834 0.013109224 0.014694085
-0.023749039 0.013643725 0.014645606
-0.023751535 0.014193792 0.014665764
-0.023765467 0.014699576 0.014669826
-0.023816716 0.015226889 0.014658629
-0.023832208 0.015620111 0.014702291
-0.023785908 0.01606776 0.014646091
-0.023631265 0.016682956 0.014676782
-0.023553979 0.017193034 0.014638905
-0.023543376 0.017664662 0.014590656
-0.023637729 0.018165201 0.014614391
-0.023711879 0.018664125 0.014635757
-0.02372482 0.019003112 0.014607999
-0.023676403 0.021769447 0.014756623
-0.023656413 0.022133311 0.014719643
-0.023686597 0.022674534 0.014855082
-0.023545023 0.028082902 0.01473414
-0.023423545 0.030684063 0.014552669
-0.023289636 0.031180816 0.01455161
-0.023156775 0.031446319 0.014626624
-0.023189239 0.031919185 0.014479332
-0.024123488 0.0025858697 0.01461723
-0.0241505 0.0033033895 0.01466599
-0.024142973 0.0037176907 0.014734725
-0.024092734 0.0040384084 0.014908016
-0.024005428 0.0092033874 0.014602026
-0.023986714 0.010115576 0.01455415
-0.023971966 0.010426832 0.014441645
-0.023955122 0.011767157 0.014890296
-0.023910027 0.012792048 0.014829082
-0.024000905 0.013232527 0.014748098
-0.023990337 0.013683592 0.014624523
-0.024020044 0.014115687 0.014656086
-0.023967667 0.014707251 0.014674228
-0.023972247 0.015176498 0.014618243
-0.023861503 0.015619523 0.014553454
-0.023860592 0.016306655 0.014721819
-0.023875637 0.016614428 0.014649638
-0.023942133 0.017210115 0.01458282
-0.024007004 0.017713422 0.014645575
-0.024044706 0.01825908 0.014616541
-0.024072593 0.018680358 0.014667086
-0.023951724 0.019240046 0.014664158
-0.023937477 0.019647479 0.01465824
-0.023883866 0.020179644 0.014666484
-0.023858193 0.020680834 0.01463886
-0.023806799 0.021142013 0.014611099
-0.02380643 0.021634756 0.014646467
-0.023846636 0.022150153 0.014597123
-0.023798661 0.022711448 0.014601568
-0.023821898 0.023157327 0.014621972
-0.023859281 0.023677539 0.01462396
-0.023900228 0.024177656 0.014615825
-0.023875223 0.024636913 0.014659238
-0.023881685 0.025156487 0.014627244
-0.023884946 0.025702283 0.014570794
-0.02392027 0.026156379 0.014605538
-0.023868565 0.026659105 0.014594409
-0.023907838 0.02718096 0.014590566
-0.023824798 0.027685059 0.014591621
-0.023884157 0.028138237 0.014564586
-0.02392523 0.028715914 0.014590691
-0.023909474 0.029195137 0.014593022
-0.023879664 0.029684773 0.014590372
-0.02373988 0.030206837 0.014603199
-0.023848325 0.030733351 0.01457486
-0.023846831 0.031129697 0.014533352
-0.023930756 0.031697113 0.01457699
-0.023922827 0.032106437 0.014552982
-0.024117103 0.027822273 0.014624077
-0.024251174 0.028145641 0.014598658
-0.02446137 0.02869519 0.014554322
-0.024137566 0.02919706 0.014594598
-0.024289023 0.029627863 0.014562953
-0.024397742 0.030086106 0.014525487
-0.024052886 0.031096956 0.014595849
-0.024109887 0.031679515 0.014565331
-0.024199056 0.03220306 0.014534337
-0.024301425 0.032503404 0.01452139
0.023853345 -0.025306631 0.015207432
0.023904068 -0.024831248 0.015188904
0.023924319 -0.024325732 0.015200449
0.023944568 -0.023820214 0.015211996
0.023996405 -0.023297502 0.015201964
0.023981227 -0.022824796 0.015233851
0.02394592 -0.022372833 0.015224624
0.023986896 -0.021833967 0.015231532
0.024002755 -0.021357408 0.015188814
0.023950469 -0.020797176 0.015139104
0.023919825 -0.020402342 0.015086807
0.023969909 -0.018215751 0.015161162
0.024002574 -0.017761411 0.015136789
0.023992777 -0.01732444 0.01521141
0.023998629 -0.016877964 0.01513075
0.024010373 -0.016433818 0.01515591
0.024240199 -0.0050696582 0.015192466
0.023790881 -0.02538297 0.015331727
0.023351315 -0.024025401 0.015209893
0.023645844 -0.023231992 0.015205692
0.023764448 -0.022865793 0.015214334
0.02379925 -0.022414368 0.015175735
0.023785373 -0.021848485 0.015239067
0.023710899 -0.021349968 0.015250861
0.023739388 -0.020836068 0.015181297
0.023846339 -0.020332268 0.015161704
0.023826912 -0.0198688 0.015246579
0.02380239 -0.019293316 0.015149612
0.023767378 -0.018810388 0.015203517
0.023760645 -0.018347649 0.015197567
0.023787955 -0.017851114 0.015188339
0.02381869 -0.017377466 0.015170433
0.02388854 -0.016917516 0.015212186
0.023930242 -0.016335392 0.015155965
0.023952525 -0.015810592 0.015167894
0.023970086 -0.015334012 0.015202037
0.023844974 -0.014825074 0.015192844
0.02380318 -0.014340187 0.015195194
0.023794999 -0.013829649 0.015214453
0.023810215 -0.013371716 0.015138499
0.023838965 -0.012869499 0.015178138
0.023818117 -0.01232293 0.015118897
0.023842152 -0.011846608 0.0151851
0.023852885 -0.01128506 0.015166016
0.023902489 -0.010775364 0.015113576
0.023864564 -0.010353511 0.015119526
0.023900615 -0.0098563023 0.015153845
0.023841605 -0.0093497392 0.015155951
0.023818413 -0.0088861864 0.01509065
0.023800876 -0.0083768163 0.01513954
0.023822377 -0.0078383693 0.015160568
0.023880813 -0.0072918008 0.015103208
0.023914428 -0.0068062879 0.015143064
0.023921113 -0.006308523 0.015134012
0.023942566 -0.0058527594 0.015146107
0.02400014 -0.0053569488 0.015124012
0.023973215 -0.0048519298 0.015146718
0.023936149 -0.0043473672 0.015155966
0.02390144 -0.003781596 0.015091501
0.023952687 -0.0033379726 0.01506966
0.023932237 -0.0028371816 0.015083548
0.023966925 -0.0023000385 0.015136814
0.023912739 -0.0017516377 0.015061847
0.02396404 -0.0012975094 0.015110212
0.02398592 -0.00078559015 0.015121495
0.024003565 -0.000323641 0.015061901
0.023999948 9.5780008e-05 0.015104321
0.023940995 0.0006135978 0.01509466
0.023955116 0.001141226 0.015086432
0.02396941 0.0017022835 0.015097906
0.02393857 0.0021732459 0.015081519
0.023959748 0.0027070262 0.015111606
0.023954801 0.0031079066 0.015070336
0.024035878 0.003629047 0.015121243
0.024057481 0.0041404245 0.015077651
0.024084568 0.0047057103 0.015054302
0.024153661 0.0051469137 0.015042871
0.024102274 0.0056560365 0.015067512
0.024023915 0.0060242512 0.014983376
0.023999305 0.0068793194 0.015180615
0.024011994 0.0072936462 0.01510386
0.024024801 0.0077073523 0.015027243
0.024043322 0.0081187906 0.015052577
0.024041496 0.008629417 0.01508066
0.024034247 0.0091409413 0.015007055
0.022999281 -0.024654396 0.01497301
0.023058046 -0.022914069 0.01525151
0.023246391 -0.021590503 0.014988903
0.023342798 -0.021316579 0.015078824
0.023710294 -0.0052586459 0.015127611
0.02369971 -0.0047978172 0.015116716
0.023714574 -0.0043687057 0.015141968
0.02384541 0.00063216349 0.014917754
0.023745324 0.0028843572 0.015058859
0.023805225 0.0032305478 0.01505886
0.023891661 0.0036830106 0.015010018
0.023894094 0.0041747764 0.015115116
0.023851819 0.0046613314 0.015046032
0.023850083 0.0051933802 0.015046912
0.023855714 0.0056944331 0.015104594
0.023900399 0.006148621 0.015051215
0.023897067 0.0065412289 0.015063268
0.023958219 0.0070794988 0.015186144
0.02397456 0.0077012992 0.015020087
0.024002334 0.0083185211 0.015058096
0.023991179 0.0086237304 0.01507355
0.023988016 0.0091757309 0.01504311
0.023905694 0.0096701244 0.015082411
0.023824651 0.010183042 0.01503811
0.023735285 0.010647224 0.015098486
0.023677869 0.011127433 0.015073595
0.023618739 0.011686142 0.015055742
0.023623051 0.012233797 0.014992816
0.02365151 0.012697768 0.014972196
0.023699561 0.013177625 0.01502388
0.023764271 0.013699891 0.015041164
0.023858869 0.014146689 0.015056839
0.023973193 0.014685773 0.015031317
0.024032667 0.015111355 0.015057933
0.024096893 0.015622108 0.015012184
0.024121188 0.01613567 0.01500705
0.024105698 0.016564507 0.015235177
0.024068173 0.017403865 0.015072593
0.024104156 0.017705245 0.014994957
0.024139415 0.018202383 0.015027944
0.02411988 0.018717481 0.014994636
0.024125539 0.019192791 0.01498252
0.024104502 0.019685645 0.015007409
0.024010841 0.020190476 0.015033299
0.023948882 0.020667281 0.015005946
0.02393724 0.021165466 0.014990487
0.023914019 0.021649931 0.014994169
0.02391037 0.022144821 0.015003632
0.023895217 0.022665977 0.014994182
0.023933945 0.023206461 0.014975193
0.023955492 0.02370235 0.015009008
0.023988869 0.024186825 0.014998845
0.024001852 0.024669165 0.015017159
0.02398777 0.025204044 0.014909676
0.023959404 0.025709702 0.014939804
0.023973078 0.026198886 0.014976319
0.023992535 0.026635831 0.014996291
0.024000477 0.027155148 0.014998451
0.024017831 0.027648529 0.014968704
0.023986652 0.028147034 0.014962833
0.023952739 0.028667869 0.01489586
0.023968726 0.029036909 0.014924809
0.023995684 0.029860679 0.014841012
0.024008008 0.030168638 0.014848045
0.024034102 0.030686649 0.014971169
0.024078088 0.031140171 0.014988055
0.024071507 0.031603169 0.01498342
0.024140015 0.03211445 0.01497105
0.024106693 0.032632258 0.014904311
0.024133194 0.033142913 0.015018587
0.024155572 0.033550933 0.015130521
0.022459203 -0.025575139 0.015273168
0.022312889 -0.025447702 0.01524897
0.02253544 -0.024665918 0.015192718
0.022640914 -0.022829596 0.015204728
0.023559686 0.010802516 0.014857748
0.023725219 0.020282732 0.014841496
0.023661166 0.020725448 0.014941293
0.023668047 0.021191113 0.014979292
0.023754716 0.021688897 0.015005889
0.023789803 0.022061009 0.014882121
0.023787459 0.022774743 0.014970107
0.023766171 0.023282252 0.014957082
0.023761667 0.023738988 0.014911869
0.023753831 0.024206422 0.014958171
0.023791609 0.024752872 0.014931006
0.023815142 0.025234977 0.014924532
0.023838904 0.025717817 0.014918032
0.023856647 0.026197048 0.014949634
0.023844296 0.026647598 0.014948852
0.023840863 0.027195124 0.015023525
0.023838716 0.027668387 0.014978223
0.02381108 0.028156552 0.014909308
0.023775132 0.028691424 0.014888198
0.023768466 0.029205458 0.014933834
0.023759685 0.0297026 0.014940803
0.023724504 0.030200545 0.014910021
0.02365227 0.030697962 0.014963097
0.023700025 0.031052392 0.014925506
0.023778128 0.031985581 0.014995753
0.022018382 -0.025397342 0.015232716
0.022073777 -0.024717029 0.015200589
0.022127885 -0.022722539 0.015238894
0.02329861 0.030903291 0.015051106
0.023234233 0.031179497 0.014931327
0.023328343 0.031744003 0.014988629
0.023472277 0.031945843 0.014773302
0.021543732 -0.025273109 0.015176248
0.021522429 -0.024748603 0.015168453
0.021633368 -0.022594523 0.015396
0.021662442 -0.022482788 0.01511954
0.022784756 0.031282559 0.014928594
0.02274029 0.031711396 0.014958656
0.022837993 0.031975631 0.015165717
0.021077791 -0.025356026 0.015199603
0.021082982 -0.024865698 0.015133301
0.021136252 -0.02237379 0.015274134
0.022276256 0.031319223 0.014936323
0.022310201 0.031777054 0.014970322
0.020559056 -0.025327086 0.015180374
0.020605803 -0.024863716 0.015123973
0.020738004 -0.022206131 0.015189085
0.021817276 0.031428058 0.014914866
0.021707576 0.031801485 0.014961374
0.02004046 -0.025345003 0.015242513
0.020147065 -0.024758544 0.015088256
0.021390824 0.03142307 0.014860978
0.021235982 0.031791341 0.014996026
0.021165479 0.032357402 0.014763484
0.021359945 0.032543138 0.014903575
0.01953919 -0.025317136 0.015276766
0.020734489 0.031648092 0.014958335
0.020764433 0.032306317 0.014924436
0.019055519 -0.02524369 0.015174727
0.020230172 0.031719379 0.014965686
0.020252921 0.032168802 0.014936587
0.018578973 -0.025152624 0.015273217
0.019758679 0.031743936 0.014970274
0.01972604 0.032134119 0.014988681
0.018168306 -0.025015604 0.015354672
0.018010622 -0.024908148 0.015223293
0.019242732 0.031726651 0.014998305
0.019284585 0.032086775 0.015022594
0.017550984 -0.024715804 0.015168638
0.018774111 0.031775177 0.014976765
0.018912813 0.032050021 0.01514767
0.018289302 0.031766172 0.014943351
0.017623741 0.031514619 0.014899123
0.017727457 0.03173716 0.014941473
0.017138053 0.031500556 0.014961069
0.017257098 0.031749882 0.014960521
0.016699256 0.03146999 0.014977797
0.016763985 0.031764455 0.014991344
0.016223218 0.031450067 0.014965264
0.016268669 0.031780496 0.014992076
0.015803926 0.031457435 0.014951644
0.015769491 0.031789944 0.0149549
0.015344268 0.031538345 0.014988454
0.015280537 0.031803146 0.014958513
0.014775202 0.031790886 0.014989913
0.014264613 0.031814419 0.014961162
0.013759956 0.031833563 0.014989058
0.013202157 0.031554524 0.014977501
0.013268641 0.031881798 0.014989445
0.012880949 0.031574383 0.014976759
0.012751479 0.031858124 0.014926348
0.01225566 0.031854074 0.014971006
0.010521561 -0.024708921 0.015093636
0.011752562 0.031877138 0.014997205
0.0099503482 -0.024822343 0.015262404
0.010078222 -0.024724217 0.015130033
0.011293798 0.031892058 0.014972858
0.0095488159 -0.024983022 0.015258702
0.0095762191 -0.024777761 0.015041256
0.010753208 0.031867899 0.015016045
0.0089840861 -0.025100064 0.015238229
0.010264133 0.031662483 0.015015291
0.010207566 0.031900611 0.01494531
0.0086321412 -0.025276255 0.015430014
0.008571255 -0.025139084 0.015185054
0.0097321179 0.031646632 0.015095708
0.0096949441 0.03198107 0.014962879
0.0097296666 0.032263286 0.015056589
0.0079721678 -0.02528845 0.01529363
0.0082547171 -0.025237219 0.015304908
0.0093204072 0.031640619 0.014961747
0.0092080459 0.031957883 0.014997889
0.0076924651 -0.025334239 0.015186758
0.008748062 0.031593371 0.014944229
0.0087879514 0.031889752 0.015023814
0.0082613621 0.031657692 0.014931561
0.0082429033 0.031854212 0.015039706
0.0077629765 0.031645894 0.014992603
0.0077359662 0.03190773 0.015035147
0.0072314874 0.031642839 0.014968745
0.0066193859 0.031223621 0.015175846
0.0067482684 0.031652324 0.01498895
0.0065422268 0.031882968 0.014881611
0.0061506671 0.031256229 0.015015506
0.0062786285 0.031666424 0.015024197
0.0061653322 0.031885006 0.014875346
0.005825073 0.031252611 0.014972113
0.0057392083 0.03155959 0.014981869
0.0057215458 0.031841621 0.015036169
0.0052570468 0.031549349 0.015002529
0.0052790456 0.031857986 0.015049011
0.0047550825 0.031627227 0.014998553
0.0048528798 0.031929649 0.015204061
0.0042539686 0.03169721 0.014987676
0.0037334112 0.031731442 0.015003726
0.003247086 0.03168276 0.015002795
0.0034094437 0.031886477 0.014922896
0.0026923663 0.03166765 0.015033005
0.0022926822 0.03167218 0.015014775
0.0017413795 0.031649977 0.015021127
0.0016719988 0.031976935 0.014991806
0.001236323 0.031637318 0.015054649
0.001312407 0.031916846 0.01512783
0.00075042341 0.031642981 0.01499051
0.00089794444 0.031921949 0.015155897
0.00024353643 0.031702835 0.014980102
0.00048409589 0.031927187 0.015183941
-0.00041475333 0.03139345 0.015035184
-0.0002462226 0.031692799 0.014994628
-0.00078803208 0.031399537 0.015016679
-0.0007023837 0.031753607 0.015026703
-0.0012950676 0.031411506 0.015037395
-0.0012311717 0.031694651 0.014972492
-0.001802103 0.031423498 0.01505811
-0.0017563703 0.031731419 0.015013954
-0.0021487805 0.03143245 0.015060504
-0.0023318268 0.031629156 0.015046423
-0.002777931 0.031651396 0.014973853
-0.0032874127 0.031632975 0.01504012
-0.003714832 0.031657454 0.015001364
-0.0043552886 0.031474814 0.015005662
-0.004259516 0.03168533 0.014996459
-0.0047625322 0.031654388 0.015006315
-0.0051963031 0.031651206 0.015016288
-0.0058114408 0.031515647 0.015070804
-0.0057006013 0.031713914 0.015003756
-0.0062817875 0.031450592 0.015136676
-0.0062221186 0.0316879 0.015008925
-0.0068689962 0.031320505 0.015067154
-0.0067886692 0.031648777 0.01506084
-0.0073285252 0.031293832 0.015069231
-0.0072534462 0.031632338 0.01505928
-0.0089227203 -0.024710884 0.015169355
-0.007797881 0.031418029 0.015026286
-0.0076835561 0.031647157 0.015029922
-0.0094626369 -0.024770305 0.015126236
-0.0082632918 0.031472705 0.015008075
-0.008215351 0.031669233 0.015110007
-0.0099031311 -0.024803296 0.015089385
-0.008775698 0.031428687 0.014995656
-0.0086225057 0.031626645 0.015107198
-0.0092408517 0.031529933 0.014953195
-0.0090353657 0.031620365 0.015280563
-0.0097403098 0.031579502 0.015058588
-0.0098196045 0.031926155 0.0150512
-0.010126808 0.031581756 0.015031628
-0.01027557 0.03171666 0.015043067
-0.011954174 -0.024595786 0.015236488
-0.010770258 0.031593721 0.014958911
-0.010678709 0.03173589 0.015043506
-0.012445562 -0.024654595 0.015287865
-0.011297572 0.03158848 0.014902337
-0.011276498 0.031732097 0.015066611
-0.01298967 -0.02486882 0.015533944
-0.012913851 -0.024686066 0.015220074
-0.011768403 0.031579528 0.014978969
-0.011796957 0.03174185 0.015104754
-0.01348397 -0.0249021 0.01540863
-0.013356274 -0.024738111 0.015149544
-0.012243357 0.031629175 0.014928315
-0.012268512 0.031747222 0.015097341
-0.013970885 -0.024980154 0.015331666
-0.013798811 -0.02479017 0.01507901
-0.012740048 0.031683497 0.015150103
-0.012732889 0.031814661 0.015046157
-0.01445814 -0.025078718 0.015369745
-0.013196318 0.031643815 0.014974308
-0.013251618 0.031820562 0.0150102
-0.014945226 -0.025167027 0.0153503
-0.013712126 0.031650368 0.015041686
-0.013760697 0.031826675 0.01506018
-0.015474062 -0.02511785 0.015288956
-0.01429663 0.03166309 0.015057796
-0.014242684 0.031845972 0.015065558
-0.015883427 -0.02528844 0.015355823
-0.016011173 -0.024953499 0.015194764
-0.016174261 -0.024738317 0.015121287
-0.014825152 0.031653799 0.015056978
-0.01472384 0.031839475 0.015001296
-0.016429456 -0.025333641 0.015277885
-0.016472919 -0.024830382 0.015218141
-0.015283086 0.031672332 0.015038706
-0.015273686 0.031875569 0.015059624
-0.016789855 -0.025380207 0.01522828
-0.016961813 -0.024880081 0.015300641
-0.015760936 0.031661075 0.015036934
-0.015798958 0.031820789 0.015078543
-0.01744394 -0.024891663 0.015282231
-0.016249385 0.031598423 0.015095368
-0.016201926 0.031815801 0.015050169
-0.017930642 -0.024907805 0.015359839
-0.016747141 0.031606693 0.015086302
-0.016708566 0.031827763 0.015070871
-0.0184958 -0.025001386 0.015299898
-0.017212894 0.031675231 0.015124012
-0.017118223 0.031829271 0.014986402
-0.019067947 -0.025212519 0.015449646
-0.018937038 -0.025013437 0.015319212
-0.017761558 0.031663857 0.015046546
-0.019254232 -0.025180668 0.015439367
-0.0194293 -0.025054855 0.01533955
-0.0182715 0.031652614 0.015095458
-0.018301742 0.031818908 0.015255886
-0.019848399 -0.025189271 0.015419209
-0.020018164 -0.025067762 0.015258932
-0.01873973 0.031669192 0.015053573
-0.018660681 0.031865362 0.01509141
-0.020511974 -0.025180863 0.01558892
-0.02047224 -0.025043948 0.015288729
-0.019235183 0.031715799 0.015037938
-0.020959297 -0.025059765 0.015370172
-0.019730853 0.031744774 0.015095237
-0.019639052 0.031867206 0.015060376
-0.021365708 -0.025137251 0.015556613
-0.021452887 -0.025048345 0.015316098
-0.020225318 0.031724833 0.015106025
-0.020426568 0.031903453 0.015232952
-0.022026338 -0.025247313 0.015374985
-0.021779556 -0.025049044 0.015218962
-0.020838339 0.03165042 0.015044759
-0.020793933 0.031941898 0.015234312
-0.02242505 -0.024932284 0.015373379
-0.021274626 0.03167234 0.015067194
-0.022799633 -0.024713714 0.015399061
-0.023092866 -0.024495102 0.015371252
-0.021762239 0.031683169 0.015072567
-0.023406658 -0.02327075 0.015346905
-0.023619644 -0.022886049 0.015326306
-0.02354165 -0.019314198 0.015287058
-0.023553252 -0.019032119 0.015395814
-0.02225901 0.031707965 0.015047619
-0.024044428 -0.024750676 0.015391709
-0.024013057 -0.024311615 0.015397037
-0.023944465 -0.023817832 0.015360383
-0.023917733 -0.023308748 0.015328309
-0.023921024 -0.022838973 0.01532389
-0.023896497 -0.022318091 0.015365456
-0.023850705 -0.021773839 0.015343028
-0.023837976 -0.021326292 0.015354849
-0.023857083 -0.02084947 0.0153329
-0.0238153 -0.020340741 0.015328975
-0.023843363 -0.019836958 0.015326881
-0.023845769 -0.019319557 0.015280047
-0.023854909 -0.018791063 0.015332967
-0.02384859 -0.018342566 0.015334601
-0.023789415 -0.01785107 0.015301003
-0.023820871 -0.017336423 0.015319819
-0.023772554 -0.016819218 0.015316064
-0.023782721 -0.016341627 0.015333604
-0.023814302 -0.015844531 0.015297921
-0.023820464 -0.015366253 0.015261807
-0.023776243 -0.014817828 0.015289605
-0.023763286 -0.014335656 0.01526805
-0.023754817 -0.013841092 0.015249471
-0.023791397 -0.013352362 0.015244649
-0.023751285 -0.012885856 0.015296414
-0.023731176 -0.012358841 0.015268383
-0.023712957 -0.011853557 0.015296721
-0.023726571 -0.011321384 0.015262834
-0.023718292 -0.010836124 0.01526657
-0.023731561 -0.010287736 0.015332006
-0.023736371 -0.0098492093 0.015319362
-0.023747325 -0.0093454877 0.015285225
-0.023765048 -0.0088654114 0.01524367
-0.023772072 -0.0083126361 0.015274989
-0.023723375 -0.0078241508 0.0152089
-0.023660235 -0.0073588612 0.015300046
-0.023704223 -0.0068886685 0.015278258
-0.023787403 -0.0062691504 0.015316628
-0.023745911 -0.0058484664 0.01511052
-0.023704657 -0.0031909223 0.015048231
-0.023722436 -0.002926419 0.015153689
-0.023658743 -0.00023004925 0.014988667
-0.023591729 0.0023725603 0.015085182
-0.023606729 0.0026229615 0.015084786
-0.02355751 0.0032336353 0.015037616
-0.023566311 0.0036260646 0.015173652
-0.022909876 0.031399339 0.01494963
-0.022703068 0.031619098 0.015067618
-0.022677256 0.031969998 0.015315882
-0.023885995 -0.008343013 0.015281609
-0.023877006 -0.0078678802 0.015282976
-0.023916569 -0.007349601 0.015255572
-0.023915425 -0.006847959 0.015224773
-0.023926249 -0.0062683513 0.015161129
-0.023939125 -0.0058098268 0.015242209
-0.023956411 -0.0053563956 0.015188241
-0.023945685 -0.0048225601 0.015217885
-0.023902304 -0.0043074018 0.015233215
-0.023904754 -0.0037769056 0.015205197
-0.023891915 -0.0032668484 0.015260569
-0.023860192 -0.0027904531 0.015281083
-0.02383332 -0.0023692679 0.015298348
-0.023827147 -0.0018344772 0.015251656
-0.023899009 -0.0012714022 0.015275599
-0.02391036 -0.00082183257 0.015245314
-0.023902554 -0.0003758946 0.015257061
-0.023876034 0.00016534457 0.015202987
-0.023924612 0.00069382333 0.015208496
-0.023898602 0.0011923898 0.015147679
-0.023882966 0.0016702634 0.015208349
-0.023914592 0.0021469817 0.015241744
-0.02400985 0.002718393 0.015159346
-0.023935311 0.0031323738 0.015229868
-0.023885626 0.0037009735 0.015279627
-0.023898343 0.0041342904 0.015209244
-0.02391934 0.0046496456 0.015166929
-0.023896948 0.0051634321 0.015257914
-0.023942783 0.0056856046 0.015237163
-0.02396971 0.00616722 0.015215651
-0.023984447 0.0067396285 0.015247766
-0.023874959 0.0071852189 0.015193464
-0.023943573 0.0077141076 0.015193091
-0.023958173 0.0082575027 0.015195665
-0.02396971 0.0086502768 0.015200317
-0.023839986 0.0091987047 0.015164938
-0.02386714 0.0096724425 0.015184386
-0.023834944 0.010184646 0.015130131
-0.02385965 0.010656798 0.015133421
-0.023884788 0.011204309 0.015174252
-0.023883909 0.011700177 0.015250716
-0.023889832 0.012186047 0.015201353
-0.02384216 0.012709799 0.015139496
-0.023811795 0.013133422 0.01510421
-0.02379065 0.013667378 0.015164818
-0.023804503 0.014172521 0.015169179
-0.023822952 0.014615499 0.015199413
-0.023823747 0.015019258 0.015201598
-0.023840223 0.015748376 0.015054263
-0.023742389 0.016186258 0.015090629
-0.023693739 0.016709439 0.015090563
-0.02366502 0.017185383 0.015191523
-0.023666184 0.017639184 0.015136918
-0.023722274 0.018128743 0.015090206
-0.023759991 0.018633215 0.015023617
-0.023768032 0.019124275 0.015246849
-0.02369575 0.021751365 0.015133045
-0.023674788 0.022142252 0.015079464
-0.023563327 0.028112957 0.015126256
-0.023438809 0.030657137 0.01512246
-0.023279969 0.031243915 0.015092936
-0.024163047 0.0031889209 0.015116705
-0.024132604 0.0035400037 0.015255996
-0.023999678 0.0090753231 0.015290696
-0.024006315 0.0097351326 0.015138238
-0.023974633 0.010204688 0.015229251
-0.023964219 0.010529727 0.015292712
-0.023966987 0.011057332 0.015248518
-0.023999535 0.011647332 0.015212866
-0.024039946 0.012203707 0.015234227
-0.024059743 0.012717443 0.015154395
-0.024005022 0.013199292 0.015136477
-0.0240607 0.013707221 0.015180013
-0.024047051 0.014169791 0.015163616
-0.024021344 0.014677087 0.015183449
-0.023965111 0.015178551 0.01514153
-0.023872599 0.01560562 0.015195954
-0.023893712 0.016246747 0.015154842
-0.023938963 0.016696732 0.015157951
-0.023974348 0.017115546 0.01515142
-0.02403485 0.017645299 0.015104573
-0.024057811 0.018201282 0.015149483
-0.024023682 0.018655596 0.015192508
-0.023951385 0.019207764 0.015133939
-0.024003539 0.019670729 0.015162186
-0.02392916 0.020151071 0.015116094
-0.023856988 0.020675413 0.015155108
-0.023835309 0.021195075 0.015106781
-0.02388314 0.021605166 0.015109979
-0.023884712 0.022218524 0.015116742
-0.023823824 0.022694807 0.015114684
-0.023849398 0.023155987 0.015133214
-0.023872372 0.023681581 0.015146502
-0.023892432 0.024182526 0.01507635
-0.023859309 0.024700571 0.015066541
-0.023875924 0.025160158 0.015110882
-0.023843613 0.025675388 0.015107604
-0.023925869 0.026184015 0.015112729
-0.023919707 0.026676627 0.015130539
-0.02393017 0.027192708 0.015111426
-0.023855178 0.027719187 0.015073672
-0.023846604 0.02815393 0.015139696
-0.023908276 0.028729362 0.015061099
-0.023866225 0.029206658 0.015104806
-0.023805767 0.029671922 0.015136982
-0.023767445 0.030155923 0.015090532
-0.023905572 0.030659014 0.015094575
-0.02382865 0.031178212 0.015063742
-0.023884885 0.031629518 0.015069453
-0.023861477 0.031938121 0.015064102
-0.024139078 0.027744677 0.015048205
-0.024247395 0.028184481 0.01504688
-0.024360631 0.028694574 0.015093351
-0.024286773 0.029137127 0.015096527
-0.02437434 0.029739847 0.015004
-0.024486508 0.030072737 0.015090792
-0.024048563 0.031695712 0.015086349
-0.024144683 0.032173764 0.015085799
-0.02456505 0.028927589 0.014876178
-0.024628522 0.029190956 0.015192615
0.023805445 -0.02566381 0.015763609
0.023817603 -0.025360268 0.015770542
0.023832001 -0.02485182 0.015681008
0.023879657 -0.024310008 0.015725115
0.023931751 -0.023838352 0.015686372
0.023934679 -0.023358405 0.015726298
0.02391066 -0.022831973 0.015724195
0.023930861 -0.022289205 0.015727736
0.024044072 -0.021779772 0.015742987
0.024020154 -0.021369923 0.015631657
0.023960251 -0.02091171 0.015633188
0.023913192 -0.020303071 0.015772134
0.023913646 -0.019994196 0.015576744
0.024259083 -0.005085214 0.015592225
0.023668528 -0.023250667 0.015686067
0.023797832 -0.022780389 0.015759688
0.023811694 -0.022318823 0.015684282
0.023752308 -0.021799996 0.015697692
0.023718523 -0.021302121 0.015678396
0.023775203 -0.020844437 0.015737824
0.023840491 -0.020282479 0.015727909
0.023811994 -0.019852903 0.015770495
0.02375545 -0.019336611 0.015710047
0.023741178 -0.018800655 0.015684009
0.023688521 -0.018311614 0.015670003
0.023754641 -0.017823061 0.015684718
0.023803787 -0.017318942 0.015680304
0.023888376 -0.016806401 0.015653204
0.023893783 -0.016355757 0.015677718
0.023928776 -0.015834535 0.015677903
0.023939842 -0.015366361 0.015676185
0.023939 -0.014832267 0.015692441
0.023815254 -0.014316997 0.015676977
0.02381856 -0.013817198 0.015673582
0.023875067 -0.013345693 0.015672745
0.023893485 -0.012853906 0.015703548
0.023845837 -0.012321712 0.015676128
0.023875307 -0.011866376 0.01565828
0.023855418 -0.011318967 0.015612166
0.023865405 -0.01079201 0.015653878
0.023890842 -0.01035599 0.015584907
0.023909401 -0.0098334532 0.015645882
0.023899814 -0.009302726 0.015593769
0.023815561 -0.0088309906 0.015619425
0.023810374 -0.0083087552 0.015619713
0.023898428 -0.0078162309 0.015608735
0.023921425 -0.0073400117 0.015604753
0.02393862 -0.0068346094 0.015572843
0.023939293 -0.0063161077 0.015593122
0.023952082 -0.0058635473 0.015605991
0.023926714 -0.0053354204 0.015620153
0.023875844 -0.0048044366 0.015646219
0.023912281 -0.0043463949 0.01564326
0.023893636 -0.0037893057 0.015626231
0.023953389 -0.0033263802 0.015597466
0.023982773 -0.002829683 0.015629312
0.024015043 -0.0023069256 0.015652323
0.02402431 -0.001778227 0.015573042
0.023963127 -0.001397192 0.015585171
0.023991499 -0.00084268884 0.015622933
0.024016866 -0.00028693245 0.01560456
0.023955941 0.00015638245 0.015646243
0.023973087 0.00071251369 0.015591882
0.023959192 0.0011735356 0.015545769
0.02398178 0.0017014361 0.015596817
0.023959719 0.0021816716 0.015571809
0.023974776 0.0026486213 0.015633225
0.02399384 0.0031923109 0.015586177
0.024096761 0.0036700566 0.015617428
0.024099026 0.0041271755 0.015562672
0.024162725 0.0046251114 0.015539771
0.024187788 0.0051519005 0.015559259
0.024065791 0.005667401 0.015589035
0.024023738 0.006666949 0.015598152
0.024021996 0.0072139031 0.015641281
0.024032839 0.0077291876 0.015603282
0.024030212 0.008310182 0.015567191
0.02403773 0.0087242015 0.015388641
0.024201222 0.015288106 0.015626889
0.024263348 0.015778823 0.01559191
0.02305554 -0.022984177 0.015573728
0.023470236 -0.01660748 0.015854083
0.023715734 -0.0055499328 0.015388697
0.02369987 -0.0049189492 0.015627617
0.02370327 -0.0044861976 0.015444329
0.023799861 -0.0016084044 0.015561012
0.023844764 0.0012821076 0.015742568
0.023857012 0.0015879726 0.015749555
0.023877429 0.0020977412 0.015761198
0.023769464 0.0028644809 0.015569765
0.023788679 0.0032073574 0.015566481
0.023835026 0.0036433237 0.015572596
0.023893757 0.0041376119 0.01559404
0.023867041 0.004747543 0.015564776
0.023851771 0.005200821 0.015556229
0.023906503 0.0055581671 0.015622478
0.023926836 0.0060848482 0.015500898
0.023956835 0.0066613723 0.015467296
0.023974983 0.007074486 0.015492297
0.023991963 0.0076265223 0.015389687
0.023970649 0.008098782 0.015547765
0.023932468 0.008615315 0.015630608
0.02390969 0.0091393795 0.015526378
0.023872381 0.0096846465 0.015564385
0.023836507 0.010131573 0.015581779
0.023774395 0.010686701 0.015568625
0.023749352 0.011111097 0.015588082
0.023694005 0.011725309 0.015559199
0.023652673 0.012220941 0.015504438
0.023666987 0.012634692 0.015515274
0.023717424 0.013154059 0.015536259
0.023780277 0.013671915 0.015541376
0.023853546 0.014155149 0.015537357
0.023987582 0.014613548 0.015591547
0.024027245 0.015113413 0.015490157
0.024054699 0.015657196 0.015529015
0.024099043 0.016136033 0.015542899
0.024130264 0.016733726 0.015575576
0.024139628 0.017225221 0.015496117
0.024131613 0.017697034 0.015496323
0.024144145 0.018193301 0.015525663
0.024134157 0.018687939 0.015551798
0.024130192 0.0191839 0.015479463
0.02413187 0.019677458 0.015507226
0.024034727 0.020190112 0.015488401
0.023970976 0.020665839 0.015437141
0.023952259 0.021170188 0.015496565
0.023924347 0.02165921 0.015471873
0.023921251 0.022152537 0.015517233
0.023960704 0.022746235 0.015520209
0.02397142 0.023182523 0.015409157
0.024006553 0.023675621 0.015433869
0.024054321 0.024185061 0.01542081
0.024026319 0.024670886 0.015468002
0.023975017 0.025178036 0.015431871
0.023979032 0.025672948 0.015515681
0.02400808 0.026159652 0.015507075
0.024113508 0.026700808 0.015514372
0.024109095 0.027221184 0.015522832
0.024047943 0.027677182 0.015461538
0.024043124 0.02817777 0.015428894
0.023986079 0.028716052 0.015430557
0.024027059 0.029133866 0.015433717
0.024143066 0.030720267 0.015482137
0.02403303 0.03110091 0.015552326
0.02401343 0.031619877 0.01568857
0.024155166 0.03216197 0.015414201
0.024136381 0.032619342 0.015417088
0.024156937 0.033132598 0.015428809
0.024177505 0.03364585 0.015440528
0.02419455 0.034021374 0.015483312
0.022440452 -0.025588525 0.015571268
0.02261778 -0.022908665 0.015661553
0.023623848 0.020689398 0.015560908
0.023658793 0.021132641 0.015514822
0.023761835 0.021581763 0.015519853
0.023778573 0.022281706 0.015720913
0.023813432 0.022631975 0.015294637
0.023759453 0.023284115 0.015274863
0.023712808 0.023745602 0.015525844
0.023734782 0.024196707 0.015440346
0.023773314 0.02476103 0.015461342
0.023818707 0.02522869 0.015458468
0.023828052 0.025724584 0.015446719
0.023870552 0.026177537 0.015479683
0.023834122 0.026738916 0.01550778
0.023833029 0.027192105 0.015492344
0.023854222 0.027780704 0.015451701
0.023815157 0.028258612 0.015426259
0.023796635 0.028698977 0.015465647
0.023794994 0.029129298 0.015429948
0.023805851 0.029698381 0.015452038
0.023813283 0.03019296 0.015423425
0.023763834 0.030690659 0.015438538
0.023876028 0.031090828 0.015424996
0.02393168 0.031673022 0.015429448
0.023845753 0.032015562 0.015438166
0.022244276 -0.025554979 0.01556044
0.022011327 -0.025501307 0.015664089
0.022118457 -0.022755431 0.015633078
0.023300525 0.031206181 0.015428079
0.023288369 0.031765871 0.01546427
0.02343452 0.031998634 0.015482854
0.021551389 -0.025442038 0.015621908
0.021619119 -0.022602204 0.015604611
0.02270993 0.031378068 0.015429679
0.022769233 0.031712718 0.01542056
0.020944333 -0.025559664 0.015918709
0.021083435 -0.025449233 0.01564246
0.02131952 -0.022510258 0.015587527
0.022214336 0.031419668 0.0153357
0.022274697 0.03176032 0.015438214
0.022197859 0.031961683 0.01562465
0.020508114 -0.025583824 0.015843898
0.020571291 -0.025479311 0.015599455
0.021917447 0.031440116 0.015341528
0.021774221 0.031773906 0.015458055
0.020030085 -0.025603779 0.015819866
0.021274416 0.031773802 0.015463294
0.021177825 0.03199305 0.015580745
0.021175887 0.032613356 0.015432044
0.019557515 -0.025573077 0.01578173
0.020770134 0.031737365 0.015427244
0.020776188 0.032326281 0.015441153
0.020960774 0.032554638 0.015555432
0.019136477 -0.025557818 0.015865684
0.019098781 -0.025437919 0.01564922
0.020262089 0.031827401 0.015484242
0.020228041 0.03225464 0.01537988
0.018657025 -0.025259972 0.0156091
0.019766238 0.031845141 0.015444105
0.019709069 0.032176107 0.01547232
0.019217992 0.031805862 0.015497484
0.019264426 0.032128412 0.015418267
0.018732941 0.031842239 0.015433081
0.018901927 0.032124247 0.015518326
0.018005401 0.031538695 0.015696634
0.018241784 0.031779781 0.015399047
0.018363828 0.03206335 0.01554537
0.017878519 0.031514313 0.015451625
0.017747097 0.031801943 0.015455086
0.0171539 0.031534944 0.015395096
0.017292567 0.031786058 0.015472289
0.016688108 0.031512525 0.015418823
0.016759984 0.031813744 0.015450905
0.016250752 0.031512089 0.015446916
0.016289638 0.031831708 0.015472138
0.015860729 0.031482529 0.015504252
0.015753038 0.031843577 0.015411486
0.015472665 0.031560246 0.015500894
0.015228989 0.031824227 0.015450951
0.014708164 0.031553704 0.015561656
0.014784592 0.031832282 0.015487214
0.014068908 0.031483654 0.015660761
0.014271142 0.031832282 0.015446489
0.013742665 0.031497169 0.015562084
0.013748341 0.031879459 0.015466012
0.013289744 0.031574696 0.015441489
0.013255518 0.031872451 0.015443571
0.012813477 0.031635229 0.015374556
0.012776437 0.031865824 0.015476084
0.012262464 0.03188378 0.015465114
0.011756472 0.031877264 0.015482772
0.011290738 0.031905383 0.015518608
0.010627652 0.031693108 0.015311315
0.010776464 0.031863492 0.01549011
0.0089558512 -0.025227409 0.015634196
0.01019848 0.031678233 0.015500934
0.010267385 0.031847302 0.015515823
0.0086264815 -0.025287125 0.015621047
0.0097065531 0.031607486 0.015559455
0.0097460318 0.031943511 0.015490344
0.0096825957 0.032383073 0.015383811
0.0092551764 0.031590488 0.015458005
0.0092223007 0.032041933 0.015488166
0.0094926516 0.032298852 0.01550009
0.0087383594 0.031610657 0.015451147
0.0087310495 0.031941961 0.015472198
0.0082587888 0.031562608 0.015477312
0.0082576871 0.031934667 0.015453893
0.0077646305 0.031532966 0.015534935
0.0078633288 0.031956896 0.015411469
0.0072242091 0.031270646 0.015385863
0.0072418926 0.031551484 0.015477753
0.0067413957 0.03151457 0.015490497
0.0062324107 0.031581547 0.015503478
0.0057297326 0.031646762 0.015522693
0.0057540871 0.03184206 0.015515784
0.0052502872 0.031640071 0.015504612
0.0052843816 0.031919267 0.015496622
0.0047596749 0.031622864 0.015538548
0.0047719153 0.031975031 0.015508831
0.0042739408 0.031650446 0.015485695
0.0044841333 0.03205388 0.015620464
0.0037726564 0.031661734 0.015474047
0.0032569496 0.031674914 0.01550064
0.0027523427 0.031624299 0.015508895
0.002286009 0.031627111 0.01550052
0.0018042226 0.031658303 0.015488758
0.0015707272 0.031908054 0.01540889
0.0012919761 0.031714235 0.015554601
0.0012368462 0.03192405 0.015536287
0.0007881429 0.031626645 0.015468909
0.00090277824 0.031939924 0.015358861
0.00027216622 0.031669982 0.015501407
0.00049133785 0.031954125 0.015488158
-0.00047084037 0.031416573 0.015307568
-0.00022494886 0.031634398 0.015537021
-0.00080599473 0.031429935 0.015388783
-0.00074944738 0.031737678 0.015561854
-0.0012777897 0.031443808 0.01544182
-0.0012278487 0.03168951 0.015554641
-0.0017848249 0.0314558 0.015462534
-0.0017398586 0.031748351 0.015516856
-0.002252155 0.03146518 0.015461374
-0.0022806483 0.031704698 0.015556212
-0.0027797804 0.031634003 0.015467394
-0.0031905887 0.03163996 0.015506493
-0.0037590123 0.031669207 0.015514644
-0.0044815852 0.031414609 0.015457719
-0.0042747464 0.031729765 0.015560437
-0.0047339723 0.031512313 0.015416221
-0.0047616507 0.031699155 0.015525267
-0.0052411505 0.031525999 0.015505075
-0.005255186 0.031767335 0.015529025
-0.0057760854 0.031517372 0.015488144
-0.0057425601 0.031718835 0.015566624
-0.0062395358 0.031460047 0.015509862
-0.0062308954 0.031772614 0.015535133
-0.0068220841 0.031396206 0.015585553
-0.0067236312 0.03177315 0.015525497
-0.0072887568 0.031353958 0.015586588
-0.0072694616 0.031730264 0.015532206
-0.0077447528 0.03148628 0.015517277
-0.0077993269 0.031804737 0.015555903
-0.0082746372 0.031469326 0.01550963
-0.0082433177 0.031793673 0.015551865
-0.0087834327 0.031505149 0.015491198
-0.0088051269 0.031680103 0.015492147
-0.0092426892 0.03155778 0.01544378
-0.0092474502 0.031679526 0.015614901
-0.0096880496 0.031566251 0.0155125
-0.0098757818 0.031755403 0.015531283
-0.010278011 0.031539444 0.015537504
-0.010236778 0.031724971 0.015484202
-0.010727003 0.031554893 0.01551208
-0.010685254 0.031734068 0.015511276
-0.011192915 0.031552251 0.015532199
-0.011246488 0.031762499 0.015538581
-0.01309289 -0.024897728 0.015727732
-0.011637405 0.031654775 0.015561335
-0.011793224 0.031794447 0.015519806
-0.013509898 -0.025010861 0.015781322
-0.012247107 0.031670175 0.015484865
-0.012221118 0.031784147 0.015546323
-0.013961685 -0.025111547 0.015798407
-0.012780463 0.03167605 0.01555758
-0.012737636 0.031823717 0.015510585
-0.014453778 -0.02517515 0.015775567
-0.013143282 0.031705983 0.015496348
-0.013256602 0.03184507 0.015536298
-0.015097484 -0.02597714 0.015994132
-0.015140771 -0.025274096 0.015744947
-0.014848638 -0.025221134 0.015756609
-0.013836744 0.031607978 0.015486466
-0.013711073 0.031831827 0.015519943
-0.015469616 -0.025920294 0.015943294
-0.015399475 -0.025319301 0.015701633
-0.014205223 0.031616256 0.015581075
-0.014139095 0.031814627 0.015570316
-0.015939472 -0.025311343 0.015601168
-0.014761294 0.03159079 0.015495372
-0.014714316 0.031816989 0.015513807
-0.016329311 -0.025382016 0.015585606
-0.015298538 0.031586103 0.015535657
-0.015233712 0.03181091 0.015488159
-0.015766021 0.031660035 0.015512034
-0.015683977 0.031827405 0.015574418
-0.016230831 0.031664252 0.015615232
-0.016246308 0.031847917 0.015436565
-0.016724873 0.031679735 0.015584365
-0.016695615 0.031851962 0.015373963
-0.017214376 0.031686466 0.015542993
-0.01902277 -0.025251757 0.01584091
-0.018867936 -0.025125533 0.015686344
-0.017752007 0.031653475 0.015587505
-0.019468671 -0.025315411 0.015749672
-0.01829074 0.03161801 0.015528268
-0.018297065 0.031836286 0.015452067
-0.019955218 -0.025263522 0.015615148
-0.018744884 0.031657871 0.015536925
-0.018683221 0.031848244 0.015479634
-0.020248704 -0.025358383 0.015618167
-0.019275527 0.031715792 0.015540287
-0.019073427 0.031842925 0.015311308
-0.021206815 -0.025734402 0.015979303
-0.019758614 0.031699337 0.015582129
-0.019671954 0.032001998 0.015582812
-0.021367297 -0.025646297 0.015968872
-0.021600852 -0.025511885 0.015861852
-0.020245513 0.031732619 0.015575415
-0.020181976 0.031907637 0.015691822
-0.022027018 -0.025279667 0.015860394
-0.020777982 0.031704742 0.015592068
-0.02076477 0.03191847 0.015517649
-0.022322997 -0.025115414 0.015814919
-0.022550549 -0.024992961 0.015836868
-0.021296246 0.031750001 0.015589156
-0.022849625 -0.024746059 0.015859677
-0.023069287 -0.024590464 0.015749216
-0.021774117 0.03177562 0.015558197
-0.021985507 0.031916369 0.015752034
-0.023464369 -0.023393385 0.015793422
-0.023656439 -0.023071172 0.015771911
-0.023614384 -0.02085273 0.015863476
-0.023567481 -0.019271821 0.015840061
-0.023525622 -0.018876946 0.015786298
-0.022252264 0.031770904 0.015540974
-0.022356153 0.031934638 0.015682127
-0.024092197 -0.025198238 0.015967673
-0.024026785 -0.024810992 0.015835466
-0.023966564 -0.024314359 0.015799889
-0.023919165 -0.023809081 0.015867768
-0.023886843 -0.02330173 0.015835166
-0.023863135 -0.022858657 0.015810814
-0.023864627 -0.022289898 0.015830455
-0.023827866 -0.021811953 0.015818734
-0.023902915 -0.021312131 0.015847141
-0.023867983 -0.02083154 0.015789444
-0.023787003 -0.02034623 0.015830871
-0.023827104 -0.019833865 0.015851848
-0.023824655 -0.019376248 0.015792836
-0.023874024 -0.018859651 0.015861569
-0.023911851 -0.018305706 0.015835239
-0.023853954 -0.017818626 0.015803549
-0.02384958 -0.017358745 0.015786445
-0.023805968 -0.016828852 0.015771804
-0.023824869 -0.016329402 0.01579647
-0.023866218 -0.015873613 0.015791252
-0.023865528 -0.015344083 0.015823135
-0.023770405 -0.014836039 0.015777325
-0.02371328 -0.014333073 0.015805984
-0.023737419 -0.013844177 0.015770679
-0.023726601 -0.013331211 0.015793933
-0.023794835 -0.012800133 0.015808798
-0.023779338 -0.01234867 0.015811959
-0.023760309 -0.011837537 0.01578307
-0.023768362 -0.011320136 0.015771527
-0.02374161 -0.010866388 0.01579202
-0.023750434 -0.010344348 0.015774744
-0.023736326 -0.0098512406 0.015848396
-0.023775686 -0.0093022902 0.015780434
-0.023766324 -0.0088137947 0.015757889
-0.023770003 -0.0083101224 0.015761508
-0.023735354 -0.0078307511 0.015805397
-0.023666494 -0.0073545119 0.015826596
-0.023774412 -0.0068084751 0.015642323
-0.0237894 -0.0056580994 0.01582695
-0.023771355 -0.0052481988 0.015995288
-0.023734417 -0.0031420805 0.015685458
-0.02367823 -0.0026780926 0.015778612
-0.023567319 0.0043110396 0.01568592
-0.02349947 0.0045152204 0.015778633
-0.022974011 0.031326331 0.015730973
-0.022640325 0.031547785 0.015591851
-0.022665475 0.03198503 0.01552642
-0.024097333 -0.015559816 0.016037915
-0.024003979 -0.014380228 0.015924297
-0.023993265 -0.013798198 0.015778271
-0.023973064 -0.013399569 0.015944256
-0.023965111 -0.0097365752 0.015925698
-0.023915235 -0.0083173299 0.015676949
-0.023893479 -0.0078137675 0.015729347
-0.02389925 -0.0073345779 0.015761087
-0.023899617 -0.0068281367 0.015719766
-0.023905396 -0.006275265 0.015750196
-0.023921384 -0.0058421218 0.015732612
-0.023903683 -0.0052948426 0.01570338
-0.023892758 -0.004855745 0.015770657
-0.023897206 -0.0043083485 0.015711283
-0.02388539 -0.0038050404 0.015720854
-0.023878925 -0.0033646345 0.015760973
-0.02388661 -0.0028565591 0.015759183
-0.02390963 -0.0023448644 0.015765164
-0.023904525 -0.0018385523 0.015746603
-0.023930432 -0.0013744564 0.015717516
-0.023954649 -0.00080538308 0.015728047
-0.023912176 -0.00031157699 0.015757101
-0.023880029 0.00017222844 0.015716914
-0.023952901 0.00059915462 0.015680706
-0.023972265 0.0011568904 0.01569777
-0.023986222 0.0017164553 0.015753692
-0.023926321 0.0021502564 0.015744729
-0.023908529 0.0026265304 0.015688965
-0.023942605 0.003180577 0.015698981
-0.02382618 0.003707591 0.015721984
-0.023921371 0.0041600536 0.015726425
-0.023960412 0.0046229893 0.015703674
-0.023928612 0.0051940437 0.015758801
-0.023977278 0.005700829 0.015756536
-0.024004431 0.0061697653 0.015664615
-0.024016429 0.0066418569 0.01564086
-0.023831425 0.007201653 0.015726099
-0.023928359 0.0076592495 0.015661487
-0.023983166 0.0081877625 0.015663715
-0.023960905 0.0089286063 0.015597758
-0.023958141 0.0091570094 0.015678262
-0.023801833 0.00964233 0.015688002
-0.023842053 0.010160708 0.015637381
-0.023696674 0.010608307 0.015671909
-0.023898099 0.011156797 0.015675291
-0.023851378 0.011684944 0.015630832
-0.023890339 0.012248414 0.015653888
-0.023886217 0.012784997 0.015519981
-0.023869345 0.013038177 0.015426935
-0.023837253 0.013689144 0.015663961
-0.023822676 0.014251359 0.015606401
-0.023838773 0.014531705 0.015621272
-0.02384443 0.01515594 0.015485507
-0.023651779 0.015555803 0.015624938
-0.023730474 0.016323159 0.015524576
-0.023775782 0.016594851 0.015552625
-0.023728304 0.017114889 0.015663248
-0.023713795 0.017561929 0.015554756
-0.023725729 0.018671034 0.01567998
-0.023707528 0.019328143 0.015436196
-0.023740159 0.019641494 0.015503468
-0.023682896 0.020668093 0.015783919
-0.023663761 0.021278255 0.015645292
-0.023692768 0.021623829 0.015668951
-0.023662744 0.022142075 0.015647609
-0.023638144 0.022676466 0.015583852
-0.02365352 0.022940205 0.015856329
-0.023461729 0.030676847 0.015599678
-0.023284301 0.031219902 0.015541952
-0.023081668 0.031422991 0.01573858
-0.024152927 0.0022380743 0.015866257
-0.024150057 0.0026944301 0.015780305
-0.024197966 0.0031479807 0.01569966
-0.024142379 0.0036919178 0.015728872
-0.024066189 0.0067277383 0.015825069
-0.024037903 0.007123529 0.01572906
-0.024029933 0.0076861517 0.015766086
-0.024013173 0.0081556076 0.015657961
-0.024002697 0.0086851912 0.015742695
-0.024019739 0.0092828814 0.015551219
-0.023987556 0.0097490707 0.015614672
-0.023982577 0.010228381 0.015689557
-0.023957789 0.01069568 0.015724959
-0.024118222 0.011204679 0.015653551
-0.024108306 0.011717116 0.015623498
-0.024057301 0.012183178 0.015680166
-0.024049601 0.012683752 0.015725069
-0.024011413 0.01318233 0.015676554
-0.024047792 0.013665582 0.015741765
-0.024036491 0.014130637 0.015670942
-0.023993198 0.014693073 0.015657634
-0.023911998 0.015197017 0.015697828
-0.023906637 0.015614067 0.015692653
-0.023895871 0.016166909 0.015673382
