# .PCD v0.7 - Point Cloud Data file format
VERSION 0.7
FIELDS x y z
SIZE 4 4 4
TYPE F F F
COUNT 1 1 1
WIDTH 1270
HEIGHT 1
VIEWPOINT 0 0 0 1 0 0 0
POINTS 1270
DATA ascii
0.011920173 0.030861374 0.023696413
0.019225895 0.030808652 0.023969678
0.019728161 0.030724488 0.023846585
0.020063613 0.030995719 0.023923337
0.021324519 0.030802749 0.023548396
0.021680715 0.030877907 0.023640852
0.02203732 0.03095329 0.02373329
-0.02267888 0.031393297 0.023516977
-0.022205159 0.031368084 0.023530828
-0.021658557 0.031337067 0.023598496
-0.021240298 0.03111309 0.023596331
-0.013752488 0.031409409 0.023501186
-0.010684913 0.031471115 0.023895884
0.012207042 0.031099459 0.023513008
0.012757197 0.031018358 0.023648633
0.018329274 0.03122648 0.023913743
0.018718705 0.031153021 0.02385027
0.019341469 0.031027406 0.023531126
0.019866984 0.031206783 0.023619562
0.022283643 0.031187847 0.023719853
-0.014246488 0.031526338 0.023514906
-0.011115238 0.031751838 0.023743946
-0.010723297 0.031587999 0.023687901
-0.017348062 -0.032417811 0.02436059
-0.012046684 -0.032407686 0.024414422
-0.011548854 -0.032189485 0.02440666
-0.011081398 -0.032212231 0.024370855
-0.010623259 -0.032099813 0.024375869
-0.010114803 -0.032034684 0.024473082
-0.0096255336 -0.032022763 0.024441358
-0.0091816746 -0.031949401 0.024435632
-0.0086240638 -0.031631015 0.024475506
-0.020856194 -0.031022299 0.02400068
-0.0095136017 -0.03101412 0.024489177
0.0036352682 -0.031194808 0.024081921
-0.020390954 -0.030947793 0.024210665
-0.015397067 -0.030512678 0.024445027
-0.0097102169 -0.03059062 0.024400907
0.0039505092 -0.030947346 0.024183111
0.0044290675 -0.03067611 0.024200764
0.016532928 -0.030571161 0.024359927
-0.01510012 -0.030380975 0.024421891
-0.014948756 -0.030114599 0.024214135
-0.0097055268 -0.030126028 0.024395734
0.0047530127 -0.030469513 0.024118071
0.016628029 -0.030171979 0.024338238
-0.013093713 -0.029528311 0.024472732
-0.0095293866 -0.029697549 0.024491191
0.016550193 -0.029769193 0.024269493
0.023823582 -0.029657599 0.024002561
-0.013510454 -0.029068274 0.02441754
-0.013312126 -0.029272709 0.024433423
0.023819905 -0.029200636 0.024139075
0.024498088 -0.029243091 0.024155218
0.024812805 -0.029395858 0.02405831
0.0062906751 -0.028850928 0.024463104
0.023492085 -0.028793219 0.024260685
0.0060762651 -0.02842338 0.024443097
0.02323647 -0.028237732 0.024248779
0.0060991459 -0.027978783 0.024454247
0.023243207 -0.027801022 0.024220981
0.023359209 -0.027398031 0.02426059
0.02368255 -0.027035557 0.024017014
0.0054770075 -0.026708351 0.024433687
-0.021885226 -0.026219241 0.02414345
-0.021477126 -0.026226129 0.024351485
-0.0077770567 -0.026105478 0.02446308
-0.005644253 -0.026121963 0.02425424
-0.02133481 -0.025963174 0.024349879
-0.018113744 -0.0258449 0.024448518
-0.008408878 -0.025536839 0.024403507
-0.007938222 -0.025596682 0.024389625
-0.0074552018 -0.025541803 0.02429709
-0.0048876917 -0.025599159 0.024404321
-0.0042348225 -0.025635373 0.024259735
-0.020793378 -0.025056269 0.024431095
-0.020467348 -0.025158985 0.024479548
-0.018694989 -0.025146237 0.024464382
-0.018383469 -0.025445962 0.024475239
-0.0094532669 -0.025030427 0.024475699
-0.0089292312 -0.02528568 0.024458915
-0.0084218075 -0.025150355 0.024442639
-0.0079441154 -0.025143057 0.024469292
-0.00724304 -0.025161669 0.024441523
-0.0058081886 -0.025445132 0.024488436
-0.0054100784 -0.025343895 0.024256675
-0.0047456333 -0.025371391 0.024098735
-0.021870404 -0.024918582 0.024394995
-0.021391595 -0.024946257 0.024368847
-0.0099052694 -0.024590539 0.02445312
-0.0094372658 -0.024569286 0.024492033
-0.0087125115 -0.024570104 0.024455814
-0.0080232397 -0.024851326 0.024441475
-0.0075037433 -0.024813795 0.024427824
0.015775746 -0.024683015 0.024363808
0.016221898 -0.024819903 0.024419479
0.017845899 -0.024578324 0.024224281
-0.01126175 -0.024232719 0.024458289
-0.010402529 -0.024486473 0.024446594
-0.0099238046 -0.024119362 0.024464704
-0.0094463788 -0.02417184 0.02445147
-0.0084668165 -0.024336787 0.024431815
0.0057326904 -0.024182418 0.02447241
0.01532319 -0.024152406 0.024471752
0.017837327 -0.024246929 0.024315687
0.022574257 -0.024388582 0.024486255
-0.021394743 -0.02376705 0.024474887
0.0059726355 -0.023982497 0.024471501
0.018067144 -0.023893548 0.024444213
0.0072574327 -0.022324095 0.024498571
0.0076153772 -0.022054909 0.024490463
0.023409775 -0.021096364 0.024384012
0.023373105 -0.020883288 0.024381632
-0.02257088 -0.020052131 0.02445649
0.023591826 -0.020248611 0.024120076
-0.022669915 -0.019787762 0.024436986
-0.0079305377 -0.019572468 0.024489133
0.023341028 -0.019755077 0.024422538
0.023581704 -0.019797796 0.024111498
-0.022818346 -0.019440524 0.024411941
-0.016281303 -0.019230336 0.024457905
0.023361472 -0.019244526 0.0244342
0.02359158 -0.019329913 0.024141928
-0.016224833 -0.018955056 0.024494369
-0.015845543 -0.018823914 0.024469627
-0.0096960869 -0.018798482 0.024444558
0.023585036 -0.018809021 0.024116041
-0.014859323 -0.01839604 0.024498038
-0.014347645 -0.018152654 0.024496939
-0.0087128934 -0.018228371 0.024428157
-0.0082705421 -0.018436333 0.024479916
0.006895287 -0.01806229 0.024429919
0.0072607389 -0.018173873 0.024481723
0.023622625 -0.018321671 0.024158433
-0.011276957 -0.017976638 0.024452565
-0.010794822 -0.017924473 0.024422497
-0.01025642 -0.017814925 0.024387198
-0.0098305456 -0.017600488 0.024364173
-0.0087277284 -0.017593425 0.024454955
-0.002006032 -0.01799719 0.024475155
0.006462696 -0.0178966 0.024427934
0.0077155703 -0.017888963 0.024473367
0.023697276 -0.017797386 0.024078218
-0.02134634 -0.017096471 0.024491727
-0.017091678 -0.017069437 0.02444456
-0.0095379837 -0.017141249 0.024370141
-0.0092437984 -0.017130423 0.024410794
-0.0089046657 -0.017081803 0.024383383
-0.0041588238 -0.01708575 0.024492076
-0.0039484743 -0.017151646 0.024484508
-0.0033229375 -0.017143784 0.024460962
-0.0029237503 -0.017256875 0.024460696
-0.01917601 -0.01689288 0.024492793
-0.0037266649 -0.01686102 0.024480965
-0.0011340107 -0.016583212 0.024468981
-0.00071121589 -0.016846482 0.02446516
-0.016169388 -0.016384123 0.024437984
-0.015810804 -0.016260307 0.024434023
-0.015230298 -0.016185496 0.024473853
-0.014744256 -0.016004913 0.024397163
-0.014205081 -0.016126743 0.024397697
-0.01388621 -0.016308121 0.024399448
-0.012824034 -0.016076228 0.024489461
-0.010311497 -0.016003519 0.024438271
-0.0020727674 -0.01645436 0.024459131
-0.014184233 -0.015558348 0.024490198
-0.0096518639 -0.015851464 0.024386302
-0.0028374386 -0.015670171 0.02449677
-0.022166811 -0.015044092 0.024473181
-0.008399481 -0.015212422 0.024486097
-0.0031596199 -0.015485406 0.024490649
-0.0072514359 -0.01462354 0.02449739
-0.0092919264 -0.011026043 0.024350807
-0.0086342879 -0.011105694 0.024365431
-0.0096603641 -0.010697987 0.024428472
-0.0091864495 -0.010732514 0.024445936
-0.0086418493 -0.010766757 0.024467664
-0.0082034552 -0.010916161 0.024448233
0.022873212 -0.010736121 0.024168957
-0.0077918321 -0.010497926 0.02446836
0.014828547 -0.010083829 0.024373308
0.015428985 -0.010305434 0.024415648
0.022939924 -0.010326809 0.024181463
0.023002502 -0.010020449 0.024191616
0.014885065 -0.009660583 0.024394171
0.016217202 -0.0095041515 0.024388121
-0.023784999 -0.009157801 0.024229588
-0.017667914 -0.0092191109 0.024408421
-0.017081514 -0.0092080049 0.024370706
-0.016677283 -0.0091288211 0.024338525
-0.0075537884 -0.0091221696 0.024454378
-0.0070166914 -0.0091848383 0.024461497
-0.0025832905 -0.0091248769 0.024445448
-0.0021145605 -0.009202078 0.024419485
-0.0017566314 -0.0092803016 0.024452366
0.0012227497 -0.009325102 0.024434138
0.0019555409 -0.0090846801 0.024402987
0.016034259 -0.0094971145 0.024414236
0.016698301 -0.009209631 0.024405051
-0.02374769 -0.0087916637 0.024237296
-0.016300568 -0.0086219013 0.024486439
-0.0087347096 -0.0086111054 0.024450872
-0.0081262589 -0.0086305635 0.024411429
-0.0077459607 -0.0087532941 0.024429202
-0.0071538086 -0.0088075148 0.024428092
-0.0067979489 -0.0087948004 0.024472866
0.0057977508 -0.0089919176 0.024442852
0.0062591657 -0.0087921545 0.024436468
-0.023817968 -0.0083147474 0.024233911
-0.0087386016 -0.0081757288 0.02445567
-0.0082745142 -0.0083239544 0.024460902
-0.0071106949 -0.0083677992 0.024447372
0.019488566 -0.0080806836 0.024360336
0.019828513 -0.0081475498 0.024373857
-0.023807816 -0.007795962 0.024072111
-0.021962609 -0.0076798322 0.024435321
-0.021432362 -0.0075393999 0.024485737
-0.0073501226 -0.007949017 0.024455467
-0.0051526697 -0.0075222915 0.024422659
-0.0042556813 -0.0078616934 0.024430592
0.017856415 -0.0077529652 0.024402048
0.019173864 -0.0079356171 0.0243722
-0.0089212554 -0.0073495698 0.024466524
-0.0057514547 -0.007346163 0.024451865
-0.024066992 -0.0057348469 0.024475271
-0.024081599 -0.0053675082 0.024460498
0.023706306 -0.0046551521 0.024032958
0.023519523 -0.0043158336 0.024151254
-0.02240777 -0.0036023837 0.024386661
0.023322783 -0.0037837077 0.024188286
-0.022401702 -0.0032890099 0.024368282
0.023090508 -0.0032395702 0.024079675
-0.02243071 -0.00283748 0.024343845
-0.022385526 -0.0024533086 0.024319265
0.015073356 -0.0015358239 0.024332592
0.015764816 -0.0015876521 0.024334762
0.022938089 -0.0015574675 0.024408935
-0.0227331 -0.0012423961 0.024460653
-0.022391278 -0.0012633962 0.024459433
0.0066134147 -0.001256737 0.024387615
0.014633371 -0.0014450741 0.024300739
0.015586585 -0.0012928213 0.02436251
0.022281341 -0.001404138 0.024312027
-0.017244674 -0.00068136584 0.02445096
-0.0085723698 -0.00050282577 0.024374504
0.0059950091 -0.00086691888 0.02434326
0.0063996878 -0.00055738218 0.024384914
-0.0088247769 -0.00040485075 0.024400348
-0.0083642527 -0.00021359304 0.024412876
-0.0078343917 -0.00023976162 0.024395501
-0.0065714838 -0.00010409582 0.024420669
0.0062642773 -0.00026613398 0.024368063
-0.0082858196 0.00019325808 0.024380395
-0.0077637704 0.00025758543 0.02440769
0.0062541207 8.9089503e-05 0.024382751
-0.022390749 0.00095631299 0.02443191
-0.0074469103 0.00090552459 0.024412991
-0.0039207884 0.00065564981 0.024407186
-0.02273773 0.0010390403 0.024439571
0.0076425178 0.0017607051 0.024339635
0.008085385 0.0019511022 0.024380499
0.0071493462 0.0054534096 0.024363944
0.0067511275 0.0055476725 0.024351586
0.022932075 0.005921986 0.024270063
0.022867788 0.0060720416 0.024319604
0.023222266 0.0061543449 0.024295246
0.023526134 0.0062681176 0.024286171
0.0074145002 0.006817434 0.024321157
0.007816596 0.0069477186 0.024345793
0.0081349583 0.0069650728 0.024317265
0.019151989 0.0066714436 0.024452336
0.019688318 0.006973844 0.024464116
0.0088450341 0.0070584812 0.02435343
0.023716636 0.0077859405 0.024297228
0.023332577 0.008147331 0.024380088
0.023769721 0.0082159881 0.024222309
-0.012188863 0.0086058816 0.024402674
-0.0082150064 0.0088598849 0.024390355
0.023677681 0.0086796861 0.024263749
-0.023049191 0.0090768728 0.024384931
-0.022884963 0.009008253 0.024388114
0.0078568533 0.0094971713 0.024346327
0.023647897 0.009245947 0.024456944
0.0080655012 0.0096540796 0.024341602
0.0081312368 0.010158768 0.024341278
-0.023638712 0.011375497 0.024111304
-0.023403674 0.011777109 0.024184275
-0.023266912 0.012109909 0.024163578
-0.0012604399 0.013816595 0.024298074
-0.00065161265 0.013831819 0.024221726
-0.0010658349 0.014232315 0.024333771
-0.00056815892 0.014147348 0.024296988
-6.7976769e-05 0.014340607 0.0242837
0.0072894567 0.014277152 0.024202079
0.0078026862 0.014317284 0.02424448
0.0081830043 0.014285098 0.02425714
0.0085681248 0.014388029 0.024311012
0.013893553 0.01411736 0.024488704
-0.0072655622 0.014811129 0.024298269
0.00026244286 0.014646652 0.0243237
0.0066071618 0.014666932 0.024279946
0.007005048 0.01459259 0.024280874
-0.022956066 0.015464405 0.024395594
0.022124402 0.015436118 0.024266666
-0.022591468 0.015712522 0.024381904
-0.022155205 0.015786543 0.024391657
-0.021597799 0.015846463 0.024370851
-0.021048408 0.015818661 0.024353258
-0.020585751 0.015753714 0.024348278
-0.020017562 0.015867904 0.024361931
-0.019676618 0.01585508 0.024365893
-0.0073170327 0.015784003 0.024353383
-0.0053469683 0.015690086 0.024304081
0.00098429504 0.015886705 0.024333118
0.001493112 0.015736697 0.024295203
0.0019717005 0.015724896 0.024281079
0.0023444004 0.015646109 0.024307251
-0.021183793 0.016142067 0.024376279
-0.020535681 0.016137071 0.024298124
-0.01978185 0.016104294 0.02431716
0.0013216326 0.016193289 0.024317332
0.0020138521 0.016009767 0.024290523
0.0092887366 0.016266903 0.024280027
0.0098357126 0.016612969 0.024290146
0.010055056 0.016832216 0.024271941
-0.014525494 0.017354881 0.024333471
-0.014243327 0.017148914 0.024340283
-0.014952263 0.01751218 0.0243656
0.014634562 0.018374395 0.024487812
0.0088818111 0.0227399 0.024247667
0.0091300765 0.022847377 0.02424423
0.0095769577 0.022954315 0.024196962
0.0092968279 0.023419632 0.024264246
0.010170564 0.023256443 0.02420545
0.010619694 0.023492292 0.024223618
0.014863398 0.023264954 0.024218515
0.015589193 0.023350451 0.024481323
0.02328549 0.023431754 0.024204409
0.0091023277 0.023536267 0.024497639
0.02313802 0.023742029 0.024476813
0.023513539 0.023576843 0.024213929
-0.0079060216 0.024494568 0.02429436
-0.0088092405 0.024834748 0.024307657
-0.0082235578 0.024830548 0.024308078
-0.0079101911 0.024836967 0.024281261
-0.007478104 0.02475605 0.024287639
0.0041709053 0.024970734 0.024467599
-0.022010993 0.025461992 0.024400908
-0.020487983 0.025049731 0.024327211
-0.013344588 0.025477197 0.024495065
-0.012834746 0.025275335 0.024451084
-0.0072299209 0.025368847 0.024293717
0.002950069 0.025465848 0.024372892
0.0031070858 0.025070282 0.024479937
0.0035795881 0.02504443 0.024364335
0.0046231127 0.025029007 0.024456345
0.011620481 0.025433801 0.024467422
-0.01772695 0.025831975 0.024335917
-0.017423954 0.025979364 0.02431264
-0.006816986 0.025801076 0.024291949
-0.0063421731 0.025859652 0.024499822
-0.0047705569 0.025584146 0.024482852
0.0025877098 0.025546126 0.024367318
0.0056787911 0.025634103 0.024499912
0.01018279 0.025829531 0.024474671
0.010687705 0.025803059 0.024430297
-0.017164934 0.026371464 0.024311338
-0.0064009889 0.026225364 0.024452744
0.0058280202 0.026045905 0.024466742
-0.016667057 0.026816439 0.024312394
-0.016276509 0.026943589 0.024302922
-0.0069744419 0.026757101 0.024444642
0.0063448101 0.026583377 0.024485942
-0.01583771 0.027041832 0.02430686
0.02079808 0.029975303 0.024088535
0.021156669 0.029848307 0.024218962
-0.020117225 0.03020166 0.024246521
-0.019856304 0.030007735 0.024009032
0.019800272 0.030413095 0.024244189
0.020260483 0.030157816 0.024468981
0.020523863 0.030067682 0.024398196
-0.020788372 0.030755207 0.024060385
-0.020432662 0.030500239 0.024042502
0.018802233 0.03090613 0.024117645
0.019330289 0.030500196 0.024482764
-0.021673262 0.031246237 0.024096752
-0.021317726 0.031050988 0.024104621
-0.014584574 0.03139393 0.024254382
-0.014184782 0.031457286 0.024266509
0.0072207144 0.031496163 0.024363557
0.01730389 0.031350054 0.024496824
0.017777173 0.031351138 0.024484385
0.018500719 0.031054476 0.024198307
0.020142915 0.03148796 0.024489304
-0.01688269 0.031786162 0.024262143
-0.016166952 0.031792812 0.02425809
-0.01582076 0.031674769 0.024258552
-0.013711641 0.031563215 0.024270745
-0.013237818 0.031595036 0.024384379
-0.012883184 0.031717401 0.024286177
-0.012204502 0.031505115 0.024437001
-0.011736289 0.031518757 0.024489274
-0.0097068362 0.031884722 0.024471326
-0.0092314258 0.031901788 0.024356352
-0.0087883603 0.031837322 0.024280638
-0.0083509637 0.031608291 0.024266362
-0.007153214 0.031911429 0.024240596
-0.0068120416 0.031908512 0.024252733
-0.0056819026 0.031893238 0.024248596
-0.00076694321 0.031739574 0.02442437
-0.0002957955 0.031639442 0.024461925
0.0058918367 0.031933568 0.024476063
0.0062829824 0.03176827 0.024415368
0.0067940303 0.031794764 0.024327883
0.0073518157 0.031892322 0.024228524
0.0078177992 0.03174245 0.024353188
0.014929362 0.031782996 0.02444642
0.018812208 0.031777736 0.024338173
0.019361237 0.031716604 0.024361011
0.019820184 0.031732526 0.02435655
0.020123789 0.031635087 0.024386922
-0.017328307 0.032287747 0.024286166
-0.016748115 0.032089546 0.024150912
-0.015686708 0.032020848 0.024447029
-0.015216179 0.032332785 0.024246238
-0.014766224 0.032304607 0.024223901
-0.014325572 0.032150239 0.024244089
-0.0089926962 0.032076728 0.02425088
-0.006333123 0.03206864 0.024236254
-0.0016469751 0.032034118 0.024488263
-0.0012503837 0.032098226 0.024316985
0.015957819 0.032167573 0.024421185
0.016233146 0.032163478 0.024475032
-0.017145794 0.032541919 0.024397222
-0.016704137 0.032591756 0.0243707
-0.01616944 0.032658562 0.024306476
-0.015805267 0.032564182 0.024272539
-0.020049855 -0.032688551 0.024724547
-0.019739842 -0.032673091 0.024583273
-0.019113518 -0.032706983 0.024595693
-0.018624363 -0.032726429 0.024595363
-0.018195856 -0.032660335 0.024643868
-0.017678242 -0.032693967 0.024618486
-0.020250412 -0.032300249 0.024752755
-0.019651078 -0.03226896 0.024671605
-0.019292265 -0.03242306 0.024596822
-0.018606219 -0.032299958 0.024629474
-0.018033454 -0.032334514 0.024690602
-0.017564455 -0.032363802 0.024710028
-0.017268779 -0.032180876 0.024739502
-0.014011143 -0.032015283 0.024546131
-0.013567116 -0.032186382 0.024567775
-0.013101184 -0.032327719 0.024566434
-0.012761504 -0.032183811 0.024570763
-0.012274595 -0.032047957 0.024538666
0.0052198595 -0.0322676 0.024916179
0.0059210537 -0.032344237 0.024815407
0.0064064492 -0.032265991 0.024870979
-0.020547122 -0.031867731 0.024805758
-0.020039925 -0.031857014 0.024771484
-0.019598123 -0.031884067 0.024705656
-0.019087786 -0.031851649 0.024617184
-0.018594453 -0.031707227 0.024574028
-0.018101387 -0.031911358 0.024627186
-0.014543741 -0.031523474 0.024581915
-0.014461393 -0.031896688 0.024570214
-0.013566835 -0.031726524 0.024608858
-0.013068892 -0.031757977 0.024628088
-0.012562921 -0.031583376 0.02462397
-0.012058114 -0.031561397 0.024562581
-0.011570781 -0.031553708 0.024664467
-0.011183155 -0.031744927 0.024716405
-0.010605996 -0.031712264 0.024666881
-0.010038416 -0.031603314 0.024667969
-0.0096787335 -0.031769436 0.024781153
-0.0091780555 -0.031691715 0.024678007
-0.0085687563 -0.031814709 0.02481563
-0.0081448406 -0.031689245 0.024698727
-0.0075974199 -0.031599574 0.024742736
-0.0071885856 -0.031525128 0.02476806
0.0054366905 -0.031862561 0.024970915
0.005909659 -0.031947374 0.024886627
0.0064103445 -0.031897951 0.024841752
0.0069424938 -0.031853799 0.024808487
0.00738109 -0.031917784 0.024713732
0.0077606384 -0.031826265 0.024732944
0.010397366 -0.031703785 0.024973197
0.013286089 -0.031778175 0.024914218
0.013923053 -0.031575531 0.024900731
0.014391631 -0.031525765 0.024869997
0.014951251 -0.031509068 0.024915533
0.015448308 -0.031751037 0.024947677
0.015880151 -0.031667255 0.024940066
0.016242832 -0.031767681 0.024906117
0.016970752 -0.031638015 0.024874425
0.017469807 -0.031768583 0.024871683
0.017771885 -0.031617105 0.02493245
0.018546738 -0.031541064 0.024987431
-0.020262435 -0.031418949 0.024890848
-0.019564522 -0.031238925 0.024772676
-0.019150184 -0.031272285 0.02471203
-0.017845038 -0.031427197 0.024657551
-0.01503559 -0.031290639 0.02492008
-0.014743266 -0.031019567 0.024572602
-0.014203979 -0.031438746 0.024642576
-0.013751484 -0.031215116 0.0246394
-0.013298816 -0.03134907 0.024621325
-0.012686097 -0.031351995 0.02456985
-0.012190253 -0.03122597 0.024715567
-0.011699796 -0.031182956 0.024688017
-0.01106699 -0.031064909 0.024844581
-0.010527921 -0.031105071 0.024902003
-0.010025939 -0.031022988 0.024877703
-0.0095506543 -0.031034725 0.024850227
-0.0090591758 -0.031116955 0.024523731
-0.0087708542 -0.031102385 0.024738198
-0.0080803018 -0.031172156 0.024741914
-0.0075408695 -0.031043211 0.024877172
-0.0070520677 -0.031173447 0.024780717
0.0032421446 -0.031196859 0.024892552
0.0037189745 -0.031282108 0.024937948
0.0059871422 -0.03146942 0.024937583
0.0064573963 -0.031464186 0.024907103
0.0069191707 -0.031442691 0.024893895
0.0074259723 -0.031475861 0.024838326
0.0079462267 -0.031366557 0.024861205
0.0087320693 -0.031398334 0.024904329
0.0094294269 -0.031230714 0.024896137
0.0098574087 -0.031280834 0.0249044
0.01105757 -0.031247413 0.024932997
0.013323594 -0.031344566 0.024906252
0.013958518 -0.031115092 0.024961546
0.014451073 -0.031190371 0.024948148
0.014917274 -0.031135881 0.024978803
0.01540327 -0.031182097 0.024958532
0.015740365 -0.031322915 0.024990646
0.01718457 -0.031346381 0.024954604
0.018177833 -0.031372372 0.024986574
-0.015742704 -0.030940738 0.024743512
-0.015028343 -0.030792199 0.024697654
-0.014594076 -0.03073284 0.024741761
-0.014101962 -0.030819356 0.024723981
-0.013507644 -0.030627841 0.024828617
-0.013067111 -0.030989369 0.024795828
-0.012703399 -0.030725628 0.024793396
-0.012181182 -0.030669637 0.024689388
-0.011526722 -0.030573711 0.024813443
-0.01104097 -0.030539859 0.024829242
-0.010514002 -0.030515691 0.024941774
-0.01003468 -0.030562561 0.024887824
-0.0095743658 -0.030559374 0.024840742
-0.0090549206 -0.030638697 0.024709269
-0.0085793901 -0.030605985 0.024755355
-0.0081056654 -0.030649759 0.024752632
-0.0075713452 -0.030618263 0.024917066
-0.0070321937 -0.030670743 0.024867009
-0.0065603545 -0.030608572 0.024926819
-0.0060487199 -0.030821234 0.024961472
-0.0057817781 -0.030635187 0.024834903
0.0059744259 -0.03099443 0.024965743
0.0064775762 -0.030950082 0.024890848
0.006991087 -0.030872066 0.02487978
0.0073915422 -0.030953914 0.02488317
0.0079437168 -0.030981239 0.024893086
0.0084267547 -0.030950133 0.024907241
0.0089244805 -0.030951418 0.024887698
0.016999369 -0.030631449 0.024686107
0.017340472 -0.030590456 0.024918562
-0.016153747 -0.030192979 0.024898618
-0.015588761 -0.030430207 0.024747813
-0.011531232 -0.030288523 0.024788262
-0.010765372 -0.030043393 0.024879396
-0.0097615216 -0.030084264 0.024840841
-0.0090508377 -0.03007259 0.024704516
-0.0085345283 -0.030164853 0.024716325
-0.0080204392 -0.030189602 0.024997097
-0.0075014513 -0.030046238 0.024989659
-0.0070112348 -0.030153329 0.024964066
-0.0065320767 -0.030201996 0.024955679
-0.0060620075 -0.030183792 0.024903281
-0.0057345224 -0.03032383 0.024860881
0.0059047821 -0.030464331 0.024976015
0.006459971 -0.03045257 0.024953041
0.0072442926 -0.030428458 0.024931587
0.0082182037 -0.030201096 0.024959136
0.0087232813 -0.030466601 0.024824688
0.0092232879 -0.030252561 0.024816461
0.00983827 -0.030238558 0.024920017
0.015815001 -0.030019829 0.024994841
0.016986957 -0.030109933 0.024608411
0.017323123 -0.030335743 0.024871618
-0.013070486 -0.029545315 0.024738975
-0.010761992 -0.029639376 0.024873145
-0.0099639613 -0.029570103 0.024850316
-0.0094908923 -0.02959175 0.024765933
-0.0087657534 -0.029618913 0.024849489
-0.0070018158 -0.029672204 0.024991518
-0.0065172752 -0.02960263 0.024877517
-0.0061114123 -0.029720074 0.024812663
0.0061440775 -0.029775903 0.024991062
0.0067597767 -0.029896544 0.024898969
0.0074941944 -0.029956944 0.024891522
0.0079019349 -0.029924195 0.024929823
0.0094199544 -0.029993623 0.024881314
0.01549966 -0.029655848 0.024969194
0.015805304 -0.029768173 0.024935879
0.016798258 -0.029753139 0.024517082
-0.0135078 -0.02910237 0.024799351
-0.013342524 -0.029272731 0.024812581
-0.010639207 -0.029193338 0.02494479
-0.01001226 -0.029165098 0.024884021
-0.009551812 -0.029139059 0.024794374
-0.009023549 -0.029114906 0.024733426
-0.0085578868 -0.029095517 0.024880027
-0.0081584295 -0.029074805 0.024861472
-0.0070289006 -0.029308267 0.024927203
0.0067452099 -0.029429361 0.024821777
0.0077993697 -0.029291702 0.02490296
0.0084683131 -0.029232746 0.024871556
0.0091597931 -0.029356057 0.024883682
0.017212119 -0.029148752 0.024822956
0.023422115 -0.029037414 0.024652774
-0.023268299 -0.028569769 0.024980001
-0.022945503 -0.028740602 0.024986593
-0.0097339768 -0.028578337 0.024885446
-0.0089970091 -0.028595787 0.024788005
-0.0082659312 -0.028597306 0.024916209
0.006800089 -0.028937191 0.024802135
0.0072431238 -0.028725127 0.024904193
0.0088265976 -0.028630333 0.024833677
0.017115526 -0.028808264 0.024686918
0.017658796 -0.028585732 0.024907019
0.023256741 -0.028703967 0.024765112
-0.023242239 -0.028203659 0.024749976
-0.0094940932 -0.028104676 0.024992846
-0.0089534875 -0.028108453 0.024924967
-0.0084639164 -0.028100742 0.024926122
-0.0078465696 -0.028271776 0.024832861
0.0063663586 -0.028373711 0.024530435
0.0065950919 -0.028466642 0.024649052
0.0074083921 -0.028495284 0.024946257
0.0078389365 -0.028428674 0.024944138
0.0084423814 -0.028014816 0.024985235
0.017244805 -0.028349468 0.024670655
0.017751243 -0.028155895 0.024835531
0.023031782 -0.028273957 0.024769675
-0.023416994 -0.027760062 0.024710238
-0.02299425 -0.027795909 0.024681903
-0.0087359985 -0.027594574 0.024945475
-0.0080355117 -0.027563594 0.024935445
-0.0075971009 -0.027672883 0.024925523
-0.006969051 -0.027685115 0.024763785
0.005721394 -0.027729366 0.024936542
0.0066247052 -0.027958021 0.024696266
0.0071908203 -0.027942922 0.02487875
0.0080879135 -0.027919475 0.024974555
0.017611016 -0.02777868 0.024712542
0.022749798 -0.027769662 0.024792166
-0.023305211 -0.02744462 0.024855971
-0.008958458 -0.027109865 0.024975102
-0.0084617008 -0.02711639 0.024901632
-0.007927496 -0.027097013 0.024908798
-0.0074993628 -0.027078055 0.024948588
0.005192718 -0.027195487 0.024581306
0.005541468 -0.027403301 0.024776431
0.0061405767 -0.027409043 0.024738189
0.0065204157 -0.027380418 0.024820108
0.007225452 -0.027459346 0.024903312
0.0082300063 -0.027457675 0.024957623
0.0085945269 -0.027482755 0.024940455
0.0090892548 -0.027441593 0.024947362
0.0095439889 -0.027241878 0.024935547
0.010112578 -0.027256295 0.024947574
0.022692397 -0.027480109 0.024673611
-0.022941723 -0.026807545 0.024916232
-0.022480259 -0.026639849 0.024765918
-0.0093031758 -0.026917968 0.024936842
-0.0089649148 -0.026616873 0.024861177
-0.0084817233 -0.026571507 0.02489038
-0.0079535069 -0.026603734 0.02491181
-0.0072353091 -0.026626512 0.024946146
-0.0064578629 -0.026625903 0.024991455
0.0055944892 -0.026784772 0.024558624
0.0061379182 -0.026917247 0.024827598
0.0067547546 -0.026919246 0.024846002
0.0074991873 -0.026991701 0.024955161
0.0080925422 -0.02687476 0.024974216
0.0085678399 -0.026907204 0.024962733
0.0090377685 -0.026946791 0.024897052
0.0099160476 -0.026590608 0.024898246
-0.022743357 -0.026304135 0.024891391
-0.022434643 -0.026323119 0.024759084
-0.021960698 -0.026239179 0.024673948
-0.021244422 -0.026242882 0.024742212
-0.020773757 -0.026272211 0.024977569
-0.0098785181 -0.02603556 0.024817836
-0.0094112325 -0.026274223 0.024807464
-0.0089394422 -0.026117604 0.024834497
-0.0084615983 -0.026076542 0.024814671
-0.0079520848 -0.026089432 0.024901951
-0.0074098064 -0.026179958 0.024881532
-0.0069488781 -0.026086314 0.024935137
-0.0064167231 -0.026094515 0.024973432
-0.005957114 -0.026103178 0.024954576
-0.0054388731 -0.02610513 0.024903193
-0.0049612178 -0.026091773 0.024875678
0.0061038793 -0.026402699 0.024604641
0.0065314006 -0.026439968 0.024779107
0.0070326724 -0.026455533 0.024877014
0.0075543718 -0.026227782 0.024935436
0.0085843029 -0.026466319 0.024912396
0.0090926355 -0.026473798 0.024853211
0.0096451631 -0.026172526 0.024875602
0.021755647 -0.026067344 0.024961518
-0.022711681 -0.025874851 0.024960479
-0.022462547 -0.025866427 0.024835268
-0.021915723 -0.025796905 0.024802389
-0.021427922 -0.025777249 0.024840938
-0.020803452 -0.025859892 0.024661146
-0.020283347 -0.025716171 0.024771888
-0.018735379 -0.025706468 0.02481745
-0.018322332 -0.025824104 0.024593903
-0.011213877 -0.025528101 0.024712764
-0.010428937 -0.025685055 0.024748137
-0.0097226072 -0.025536783 0.024639707
-0.0094619198 -0.025620142 0.024799719
-0.008931566 -0.025574904 0.024768835
-0.0084643941 -0.025583293 0.024795303
-0.0079532983 -0.025594011 0.024843801
-0.0074647968 -0.02558971 0.024794066
-0.0069730831 -0.025635239 0.024850463
-0.0064080134 -0.025678413 0.024801539
-0.0059326757 -0.025685867 0.024828296
-0.005491145 -0.025640611 0.024769373
-0.0049691414 -0.025839297 0.024707977
-0.0044312333 -0.025834633 0.024626309
-0.0017532154 -0.025671922 0.024773043
0.0062223542 -0.025911812 0.024635609
0.006537559 -0.02587565 0.024705615
0.0070064673 -0.02590894 0.024870265
0.0079764156 -0.025908742 0.024910336
0.0085821254 -0.025894396 0.024861215
0.0090592541 -0.025744494 0.024788797
0.0099323858 -0.025704969 0.02497929
0.013090746 -0.025526067 0.024796972
0.020619726 -0.025699876 0.024815196
0.02106788 -0.02573307 0.024794918
0.021579474 -0.025771713 0.024789926
0.022078037 -0.025737058 0.024799183
0.02252855 -0.025717465 0.024782488
-0.022660725 -0.025380146 0.024524976
-0.022372492 -0.02517442 0.024693308
-0.021922965 -0.025250012 0.02468073
-0.021439053 -0.025273524 0.024690975
-0.020942628 -0.025296357 0.024666013
-0.020211898 -0.02534182 0.02484812
-0.019792024 -0.025310747 0.024598548
-0.018761121 -0.025432985 0.024695259
-0.011374347 -0.025262706 0.024541426
-0.010954965 -0.02536026 0.024630461
-0.010355923 -0.025116777 0.024743384
-0.0099419793 -0.025116373 0.024668258
-0.0094159609 -0.025098342 0.024784185
-0.0089127086 -0.025085222 0.024806026
-0.0084483661 -0.025090549 0.024794688
-0.0079310909 -0.025102459 0.024824543
-0.0074619027 -0.025134517 0.024810549
-0.0069220718 -0.025160553 0.024851417
-0.0064481143 -0.025127595 0.024864059
-0.0058944309 -0.025175286 0.024851521
-0.0054352232 -0.025137139 0.024875587
-0.0049188104 -0.025050024 0.024902657
-0.0042611309 -0.02508058 0.024952166
-0.0035704388 -0.025138665 0.024908172
-0.0023291586 -0.025171969 0.024926623
-0.0019385156 -0.025289511 0.02478227
-0.0012838055 -0.025379168 0.024613172
-0.00091050984 -0.025194891 0.024611045
0.0042068898 -0.025244888 0.024829213
0.0046288241 -0.025313212 0.024938922
0.005066257 -0.025349475 0.024986684
0.0055998135 -0.025287585 0.024917936
0.0061535104 -0.025392883 0.024728075
0.0066344314 -0.025384849 0.024837488
0.0071966788 -0.025209203 0.024663575
0.0076909587 -0.025179289 0.024624502
0.00808316 -0.025436047 0.024820704
0.008570415 -0.025443204 0.024766345
0.0094725154 -0.025428673 0.02491934
0.01180698 -0.025053285 0.024810508
0.01209742 -0.0253189 0.02476093
0.012581771 -0.025246568 0.024829332
0.013100213 -0.025126033 0.024915189
0.019071512 -0.025134917 0.024952695
0.020622047 -0.025327154 0.0245599
0.021074809 -0.025262052 0.024626259
0.021564791 -0.025186123 0.024718888
0.022083689 -0.025228832 0.024749028
0.022553738 -0.025285382 0.024777189
0.023092039 -0.025163608 0.024852529
0.023710532 -0.025186874 0.024859712
-0.022377707 -0.024821788 0.024992056
-0.02181676 -0.024815517 0.024938129
-0.021391053 -0.024867987 0.024889022
-0.020910911 -0.024869975 0.024868691
-0.020429004 -0.024864344 0.024846848
-0.019949712 -0.024846992 0.024811335
-0.019382538 -0.024915343 0.024768345
-0.018753361 -0.024788484 0.024685234
-0.017917734 -0.024663083 0.024844386
-0.012403149 -0.024502536 0.024919892
-0.010292952 -0.024800116 0.024611855
-0.0098806443 -0.024593676 0.024734197
-0.009412609 -0.024593187 0.024768151
-0.0088841338 -0.02461016 0.024810476
-0.0084032882 -0.024592139 0.024776697
-0.0078962874 -0.024602463 0.024795016
-0.0074005071 -0.024628788 0.024769751
-0.0068936655 -0.024628807 0.024666917
-0.0064027794 -0.024589738 0.024753967
-0.0059346855 -0.024613308 0.024819303
-0.0054264702 -0.024753107 0.024717227
-0.0048749782 -0.024720846 0.024750074
-0.0044186488 -0.024808327 0.02479808
-0.0039738389 -0.024781775 0.024912445
-0.0027630164 -0.024697829 0.024990525
-0.0023896219 -0.024726549 0.024934817
-0.0019624212 -0.024723077 0.02486128
-0.0014632823 -0.024731928 0.024773858
-0.00093865965 -0.0247295 0.024722235
-0.00049721508 -0.024720235 0.024696447
0.0045825802 -0.024906723 0.024747679
0.0050892895 -0.024893872 0.02483975
0.0055817431 -0.024900688 0.024834801
0.0060512191 -0.0249169 0.024800031
0.0065881312 -0.024909982 0.024831304
0.0070887804 -0.02496648 0.024823135
0.0075834258 -0.024897413 0.024859652
0.0080715045 -0.024966821 0.024840306
0.0085241515 -0.02497839 0.024871936
0.0090703368 -0.024931747 0.024907749
0.0095265917 -0.024987713 0.024928758
0.010295767 -0.02492664 0.024963338
0.010605788 -0.024529081 0.024804683
0.011095209 -0.024667591 0.02479817
0.011554566 -0.024550764 0.024933252
0.01206426 -0.024627239 0.024960496
0.012526669 -0.024553169 0.024974938
0.016126396 -0.024520636 0.024550257
0.016594047 -0.024562238 0.024583628
0.017049255 -0.024531186 0.024637086
0.018108293 -0.024502965 0.024853211
0.019138807 -0.024675155 0.024914406
0.019594254 -0.024690825 0.024907947
0.020096321 -0.024626061 0.024907712
0.020598453 -0.024648037 0.024874851
0.021115832 -0.024712225 0.02485205
0.021625863 -0.024659041 0.024894938
0.022099741 -0.024688557 0.024882432
0.022569012 -0.024781723 0.024838943
0.023130655 -0.024771035 0.02461461
0.023732115 -0.024769489 0.024699183
-0.024199437 -0.024191074 0.024725748
-0.023853419 -0.024322024 0.024748936
-0.023372458 -0.024177473 0.024767457
-0.022898197 -0.024199907 0.024859365
-0.022419197 -0.024336342 0.024966933
-0.02191316 -0.024295418 0.024932008
-0.021420551 -0.024383146 0.024910659
-0.020946855 -0.024331579 0.024881583
-0.020432906 -0.02437762 0.0248775
-0.019921985 -0.02444295 0.024887653
-0.019402813 -0.024360975 0.024874114
-0.018871229 -0.02441651 0.024787396
-0.018381868 -0.024386583 0.024725098
-0.017972276 -0.024360495 0.024773877
-0.017480586 -0.024359629 0.024863463
-0.016946469 -0.024347242 0.024851589
-0.016473383 -0.024233781 0.024868242
-0.015328943 -0.024054648 0.024554875
-0.01483796 -0.024244681 0.024572324
-0.014421893 -0.024315316 0.024629971
-0.013884731 -0.024269884 0.0246624
-0.013308942 -0.024225201 0.024840457
-0.012955707 -0.024452835 0.024893137
-0.012387611 -0.024197904 0.024595667
-0.011877945 -0.024235927 0.024657935
-0.011462776 -0.024262898 0.024745844
-0.010857298 -0.024212813 0.024645498
-0.010393505 -0.024108998 0.024642367
-0.0099275587 -0.024086252 0.02476838
-0.0094270939 -0.024087181 0.024755983
-0.0089020599 -0.024217207 0.024663698
-0.0083785588 -0.024096688 0.024761476
-0.0078861164 -0.024111772 0.02475151
-0.0074240654 -0.024154633 0.024779608
-0.0068894411 -0.024135983 0.024784761
-0.0064296313 -0.024163947 0.024739159
-0.0059808781 -0.024169657 0.024773633
-0.0054227612 -0.024122676 0.024730394
-0.0049007754 -0.024061907 0.024739714
-0.0043053976 -0.024013195 0.024801461
-0.0038729068 -0.024230437 0.024899457
-0.0034124563 -0.024159182 0.024882892
-0.00291117 -0.024217229 0.024928359
-0.0024596856 -0.024138458 0.024919245
-0.0019272793 -0.024192268 0.024902025
-0.0013941544 -0.024260018 0.024859278
-0.00090440316 -0.024216577 0.024830934
-0.00041813919 -0.024237394 0.024801204
2.9286253e-05 -0.024051534 0.024764678
0.0015268368 -0.024194673 0.024987029
0.0020565609 -0.024151841 0.024793103
0.0027541015 -0.024200968 0.02477492
0.003025753 -0.024048796 0.024826128
0.0046999319 -0.024456529 0.024664937
0.0051254518 -0.024474826 0.024863798
0.0055930642 -0.024388997 0.024841035
0.0061273775 -0.024416914 0.024808075
0.0065762708 -0.024433756 0.024840865
0.0070943087 -0.024410546 0.024829615
0.007559665 -0.024443902 0.024825633
0.0080858916 -0.024485681 0.024827229
0.0086048683 -0.024244107 0.024851367
0.0090887779 -0.02444599 0.024840651
0.0095798355 -0.024235614 0.024855552
0.010123739 -0.024223549 0.024840361
0.010569932 -0.024018258 0.0248386
0.011102053 -0.024029559 0.024952266
0.011945517 -0.024021741 0.024864035
0.012715215 -0.024035297 0.024918143
0.01310909 -0.024262365 0.02479279
0.013578236 -0.024256941 0.02466687
0.014075544 -0.024258493 0.02461311
0.014543464 -0.02422991 0.024540598
0.015107482 -0.024041621 0.024557516
0.015623521 -0.024264291 0.024557509
0.016065316 -0.024125366 0.024622709
0.016632559 -0.024049869 0.0247644
0.017137274 -0.024191158 0.02482043
0.017576426 -0.024342598 0.024812233
0.018136911 -0.02415414 0.024866702
0.018657651 -0.024361171 0.024915615
0.019091886 -0.024142545 0.024950072
0.019639395 -0.024381546 0.024933344
0.02013357 -0.024305414 0.024777424
0.020659683 -0.02422416 0.02472971
0.021095604 -0.024203788 0.024692945
0.021631047 -0.0243313 0.024636237
0.022066178 -0.024400065 0.024631014
0.023089081 -0.024316512 0.024599964
0.02360151 -0.024370005 0.024584427
-0.023834653 -0.023876924 0.024769399
-0.023395563 -0.023721093 0.024797885
-0.022894658 -0.02384568 0.024771951
-0.022302663 -0.023700561 0.024739793
-0.02186545 -0.023731109 0.024763759
-0.021400999 -0.023917785 0.024821334
-0.020917602 -0.023828072 0.02469467
-0.020321783 -0.023747901 0.024933819
-0.019946979 -0.02388262 0.024965901
-0.019428778 -0.023870097 0.024961472
-0.018944852 -0.023952937 0.024889961
-0.018395985 -0.023900473 0.024859084
-0.017872522 -0.023921121 0.024799591
-0.017408524 -0.023885502 0.024797441
-0.016898492 -0.023909036 0.02483353
-0.016218454 -0.023759883 0.02469524
-0.015937002 -0.023823194 0.024656605
-0.015366629 -0.02393198 0.024673006
-0.014996618 -0.023987377 0.024684288
-0.01442394 -0.023783583 0.024688587
-0.013853222 -0.023974862 0.024691582
-0.013277859 -0.023609456 0.024814269
-0.012913652 -0.023963496 0.024742678
-0.012286344 -0.023730222 0.024723794
-0.011858622 -0.023746008 0.024770971
-0.011387911 -0.02357965 0.024850344
-0.010912314 -0.023587616 0.024786495
-0.010417141 -0.02354805 0.024768591
-0.0099170543 -0.02356028 0.024743123
-0.0094219167 -0.023584291 0.024755413
-0.0088755889 -0.023606893 0.024762144
-0.0082142316 -0.023780037 0.024645489
-0.0078839632 -0.02361615 0.024769982
-0.0073966263 -0.023633456 0.024777407
-0.0068827909 -0.023655571 0.024757138
-0.0064076185 -0.023640938 0.0248094
-0.0059361504 -0.02365642 0.024854986
-0.0054355417 -0.023665929 0.024798833
-0.0048716045 -0.023704812 0.024792133
-0.0043746596 -0.023744332 0.024768861
-0.0038889302 -0.023703517 0.024788074
-0.0034044636 -0.023707673 0.024839228
-0.0028751472 -0.023690013 0.024888285
-0.0023963805 -0.023730343 0.024853952
-0.0018827232 -0.023695018 0.024845397
-0.0014123057 -0.023792036 0.024857977
-0.00089016359 -0.023745913 0.024809437
-0.00039439963 -0.023799051 0.024846364
9.8480086e-05 -0.023719672 0.024808891
0.00059156271 -0.023779618 0.024773763
0.0011006019 -0.0237666 0.024829298
0.0015866564 -0.023861898 0.024789197
0.0021560863 -0.023830766 0.024740474
0.0026059737 -0.023862742 0.024737572
0.0052247872 -0.02395824 0.024741685
0.0055564279 -0.023934811 0.024776891
0.0061357561 -0.023847139 0.024817878
0.0065878103 -0.023933938 0.024838632
0.0070938831 -0.023911027 0.024786038
0.0075797644 -0.023948517 0.024838049
0.0081119053 -0.023947772 0.024816405
0.0086000804 -0.023500018 0.02483274
0.0091150738 -0.0239847 0.024854233
0.010118316 -0.023501335 0.024873534
0.01066709 -0.023551213 0.024905398
0.011621971 -0.023750294 0.024842881
0.012049628 -0.023549819 0.02479744
0.012520292 -0.023538709 0.024917945
0.013109374 -0.023589732 0.02475922
0.013556254 -0.02353137 0.024719464
0.01412899 -0.023595544 0.024719257
0.01457591 -0.023583466 0.024766756
0.015132461 -0.023624644 0.024696609
0.015654994 -0.023617446 0.024689686
0.016121326 -0.023605773 0.024718994
0.016589396 -0.023612557 0.024806075
0.017096791 -0.023659144 0.024800643
0.017545983 -0.023683453 0.024811909
0.018128349 -0.023643477 0.024869736
0.018628417 -0.023717945 0.024929347
0.019125395 -0.023673981 0.024936303
0.019568931 -0.023591895 0.024874026
0.020191781 -0.023600826 0.024908584
0.020620089 -0.023716826 0.024838613
0.021050192 -0.02368845 0.024781935
0.021578407 -0.023739168 0.024743011
0.022108024 -0.023699703 0.024792716
0.022800561 -0.023725834 0.024856951
-0.023432927 -0.023392886 0.024878561
-0.0228674 -0.023378588 0.024851983
-0.022345299 -0.02337797 0.024744272
-0.021964489 -0.023344379 0.024821466
-0.021254156 -0.023459669 0.024638161
-0.020899881 -0.023455752 0.024676438
-0.019929107 -0.023485813 0.02499575
-0.018886453 -0.023468615 0.02499919
-0.018325053 -0.023182206 0.02483568
-0.017881624 -0.023412047 0.024815688
-0.017417435 -0.023415765 0.024768518
-0.016925616 -0.023382232 0.024700373
-0.016388541 -0.023397168 0.024686731
-0.015851622 -0.023288975 0.024658211
-0.015435701 -0.02340623 0.024813216
-0.01486217 -0.023460396 0.024828624
-0.013781393 -0.023348588 0.024918579
-0.01248228 -0.02303803 0.02498604
-0.011220912 -0.023097187 0.024955852
-0.0108692 -0.023165546 0.0249174
-0.010383793 -0.023040453 0.024878472
-0.0098791607 -0.02308047 0.024787085
-0.0093749063 -0.023102403 0.024806144
-0.008875248 -0.023132494 0.024798084
-0.0083560469 -0.023095949 0.024773862
-0.0078682732 -0.023142954 0.024775054
-0.007385015 -0.023131261 0.024772361
-0.0068755592 -0.023159422 0.024824116
-0.0063909376 -0.023184784 0.024869572
-0.0058949497 -0.023229582 0.024800081
-0.0053585595 -0.023216188 0.024796324
-0.0049468391 -0.023255764 0.02482748
-0.0036690668 -0.023361951 0.02476858
-0.0033394801 -0.023248697 0.024781823
-0.0028623361 -0.023267003 0.024857201
-0.0023914201 -0.023242796 0.024852129
-0.0018578122 -0.023251401 0.024811829
-0.0013608156 -0.023292962 0.024824714
-0.00085489929 -0.023259418 0.024822604
-0.00039076956 -0.023293376 0.024824681
0.00011809659 -0.023282021 0.024839086
0.00062451861 -0.023297423 0.024850629
0.001139233 -0.023271136 0.02483502
0.0016044573 -0.023346491 0.024852296
0.0022618396 -0.02332478 0.024885129
0.0029189 -0.023089293 0.024994085
0.0030930303 -0.023347385 0.02496551
0.0040592933 -0.023336114 0.024968646
0.0046524461 -0.023452289 0.024915952
0.005156545 -0.02343999 0.024906831
0.0056420336 -0.023431748 0.024804575
0.0061021121 -0.023415677 0.02476503
0.0066241892 -0.023462676 0.024840117
0.0071328525 -0.023451053 0.024786247
0.0076005398 -0.023441058 0.024807371
0.0081259357 -0.023449074 0.024824161
0.0090929875 -0.023246646 0.024816375
0.0095864283 -0.023477951 0.024839712
0.010138992 -0.023029355 0.024886649
0.010657407 -0.023005815 0.02492528
0.011142717 -0.023241434 0.02487063
0.01156693 -0.023065068 0.024949273
0.012066111 -0.023046516 0.024955157
0.012618735 -0.02304546 0.024938637
0.013140539 -0.023051381 0.024868241
0.013607908 -0.023063043 0.024808669
0.014124919 -0.023054028 0.024779744
0.014617877 -0.023144297 0.024796413
0.015130816 -0.023086732 0.024786636
0.015611112 -0.02310564 0.024784951
0.016100734 -0.023111282 0.024788721
0.016594321 -0.023116805 0.024812028
0.017132839 -0.023134874 0.024785841
0.017579602 -0.023148786 0.024780804
0.018085867 -0.023221985 0.024919851
0.018693451 -0.02321877 0.024912871
0.01906283 -0.023229592 0.024921563
0.019607931 -0.023240665 0.024905052
0.020051951 -0.02322674 0.024877034
0.020575853 -0.023273133 0.024886874
0.021075953 -0.023181766 0.024922356
0.021600118 -0.023232965 0.024797449
0.022073109 -0.023218075 0.024836933
0.022625647 -0.023267752 0.024836544
0.023045106 -0.023202574 0.024813145
-0.023759322 -0.022717897 0.024904082
-0.023462504 -0.022702079 0.024991086
-0.022873273 -0.022811849 0.024941523
-0.022361415 -0.022834053 0.024988085
-0.017867211 -0.022947893 0.02485661
-0.017349826 -0.022957878 0.024830192
-0.016871007 -0.02294248 0.024783505
-0.016406585 -0.022940777 0.024744559
-0.015883394 -0.022942249 0.024776531
-0.015393051 -0.022994131 0.024821937
-0.014878501 -0.022947952 0.024898188
-0.014392042 -0.022782572 0.024953514
-0.013925884 -0.022934979 0.024949441
-0.013374902 -0.022928827 0.024950288
-0.012905789 -0.022969866 0.024965882
-0.010687063 -0.022664575 0.024931135
-0.010339543 -0.022533633 0.024843333
-0.0098676411 -0.022544965 0.024847237
-0.0093829669 -0.02255984 0.024777217
-0.0088636307 -0.022589039 0.024797672
-0.0083756465 -0.022568626 0.024798583
-0.0078753643 -0.022596138 0.024806188
-0.0073952237 -0.02263516 0.024798812
-0.0068605314 -0.02263098 0.024844218
-0.0062109362 -0.022679653 0.024816141
-0.0056155063 -0.022885904 0.024777293
-0.0031925482 -0.02264848 0.02475686
-0.0028201872 -0.02278615 0.024816021
-0.0023425398 -0.022785079 0.024850477
-0.0018965231 -0.022727948 0.024852049
-0.0013544941 -0.022761891 0.024840018
-0.00090786442 -0.022771081 0.024854366
-0.00041331491 -0.022778479 0.024860756
0.00014681922 -0.022790754 0.024851231
0.00062593038 -0.022795457 0.024839852
0.0011019866 -0.022825122 0.024850706
0.0015984642 -0.022810316 0.024909927
0.0021010386 -0.022726001 0.024942961
0.0025995653 -0.022961926 0.024962189
0.0042798403 -0.022830866 0.024968693
0.0046231435 -0.02296376 0.024969513
0.0051788352 -0.022735903 0.024903294
0.0056277062 -0.022895863 0.024886129
0.0061403369 -0.022917788 0.024789199
0.0066344813 -0.02292493 0.024766864
0.0071023079 -0.022906838 0.024800688
0.0076050041 -0.022935102 0.024799876
0.0081250481 -0.022944221 0.024802821
0.0086031752 -0.022952529 0.024814872
0.0091288034 -0.022514986 0.024809832
0.0096349167 -0.022990674 0.024828378
0.010137397 -0.022555495 0.024946705
0.010685978 -0.022548808 0.024948511
0.0110847 -0.02268474 0.024975266
0.013359052 -0.022705195 0.02474268
0.013715663 -0.022627447 0.024818964
0.014123914 -0.022582363 0.024824515
0.014623468 -0.022649955 0.024812337
0.015130342 -0.022571515 0.024813492
0.015601192 -0.022649636 0.024818426
0.01616016 -0.022647116 0.024817336
0.016668124 -0.022625538 0.024805959
0.017151518 -0.022675853 0.024836831
0.017710896 -0.022572644 0.024857299
0.01832271 -0.022813369 0.02494688
0.020189343 -0.022915678 0.024922522
0.02064186 -0.022876684 0.024878426
0.021113664 -0.022837913 0.024866577
0.021572573 -0.022793297 0.024875831
0.022318464 -0.022878954 0.024865398
0.023158381 -0.022827493 0.024844481
0.023830682 -0.022621818 0.024913158
0.024001388 -0.022596646 0.024863167
-0.023812585 -0.022247327 0.024872622
-0.023454042 -0.022245286 0.02499132
-0.022842068 -0.022173049 0.024982404
-0.017796652 -0.022404108 0.024987699
-0.017341526 -0.022419496 0.024799461
-0.016842067 -0.022416277 0.024786765
-0.016386803 -0.022439906 0.024789669
-0.01588642 -0.022477755 0.024821723
-0.01540808 -0.022429442 0.02486706
-0.014879231 -0.022431564 0.024891701
-0.0098679578 -0.022057751 0.024858717
-0.0093511399 -0.022064615 0.024802124
-0.0088492651 -0.022111375 0.02476191
-0.0083473651 -0.02207154 0.024746463
-0.0078482628 -0.022100998 0.024774363
-0.0073630968 -0.022159915 0.024820659
-0.006936959 -0.022183489 0.024863878
-0.006299207 -0.022395395 0.024999037
-0.0031780854 -0.022417126 0.024827063
-0.0029127379 -0.0223081 0.024843128
-0.0023745317 -0.02227886 0.024818704
-0.0018497194 -0.022250198 0.024843451
-0.001388206 -0.022272205 0.024865163
-0.00088337727 -0.022276206 0.024873355
-0.00040116344 -0.022295386 0.024823489
0.00011808256 -0.022318922 0.024846207
0.00062357134 -0.022310104 0.024869129
0.0011641677 -0.022295041 0.024935162
0.0016422882 -0.022313027 0.024931643
0.0056533436 -0.022432957 0.024925571
0.0062102405 -0.02225979 0.024799082
0.0066101169 -0.02241753 0.024741143
0.0071570361 -0.022416325 0.024758624
0.0076700328 -0.022442963 0.024810018
0.0081157479 -0.022453096 0.024835626
0.0086117741 -0.02246438 0.024842469
0.0091329236 -0.022032928 0.024807069
0.0095481668 -0.022326458 0.024842447
0.01388508 -0.02231426 0.024955601
0.014167219 -0.022102501 0.024899408
0.014644925 -0.022106646 0.024894075
0.015179151 -0.022101464 0.024822442
0.015634637 -0.022124439 0.024803398
0.016158879 -0.022121446 0.024817541
0.016628345 -0.022192944 0.024828564
0.017156405 -0.02213897 0.024911718
0.017746029 -0.022210374 0.0249516
0.023209186 -0.02215418 0.024925994
0.023765536 -0.022290872 0.024908781
-0.023824476 -0.021805877 0.02489279
-0.017858682 -0.021962488 0.024968496
-0.017311845 -0.021940313 0.024837079
-0.01687659 -0.021921847 0.024786936
-0.016374208 -0.021977363 0.024823515
-0.015875006 -0.021959884 0.024881948
-0.01534704 -0.02193349 0.024877192
-0.014854883 -0.021990068 0.024933547
-0.010306163 -0.021844285 0.024750825
-0.0098572653 -0.021641714 0.024877539
-0.0093707703 -0.021579271 0.02478759
-0.0088521605 -0.021589128 0.024761222
-0.0083723785 -0.02161948 0.024783142
-0.0078474227 -0.021615624 0.024784312
-0.0073883757 -0.02163869 0.02485721
-0.0069880155 -0.02175799 0.02493353
-0.0022509443 -0.02176225 0.024875315
-0.0018498019 -0.021773372 0.024891684
-0.0013335368 -0.021819048 0.024894157
-0.00083470647 -0.021772427 0.024877954
-0.00037635927 -0.021795567 0.024841296
0.0001511125 -0.021764088 0.024845714
0.00066338922 -0.02177266 0.024925798
