# .PCD v0.7 - Point Cloud Data file format
VERSION 0.7
FIELDS x y z
SIZE 4 4 4
TYPE F F F
COUNT 1 1 1
WIDTH 1249
HEIGHT 1
VIEWPOINT 0 0 0 1 0 0 0
POINTS 1249
DATA ascii
0.016755342 -0.0026709326 0.024768595
0.017403064 -0.0029037076 0.024856059
0.017513003 -0.0026046396 0.024845188
-0.017833905 -0.0023387403 0.024891304
-0.017427523 -0.0023955819 0.024924083
-0.016937977 -0.0024159737 0.024869649
-0.016448624 -0.0024334374 0.024748456
-0.015927739 -0.0024570243 0.024795178
-0.015454135 -0.0024440463 0.024791136
-0.014963092 -0.0024083797 0.02480063
-0.014461983 -0.0024489493 0.02490429
-0.0093932897 -0.0020520883 0.02477682
-0.0089489277 -0.0021277778 0.024770143
-0.0084126322 -0.0021162115 0.024784803
-0.0079551665 -0.0020894681 0.024770837
-0.0074429493 -0.0021535587 0.024785103
-0.0069486103 -0.002154567 0.024770509
-0.0061706863 -0.0021991751 0.02485209
-0.0022303022 -0.0020242957 0.02466747
-0.001879684 -0.0022244293 0.02478862
-0.0014548927 -0.0022868314 0.024776544
-0.00094947434 -0.0022473647 0.024783922
-0.00042836182 -0.0022816826 0.024744572
6.6096312e-05 -0.0023065738 0.024797278
0.00076360995 -0.0022955488 0.024824403
0.001462023 -0.0022747912 0.024868878
0.0062772329 -0.0022746471 0.024747288
0.0065506333 -0.0023882473 0.024810715
0.0070347604 -0.0024049873 0.024735082
0.007597975 -0.0024065918 0.024725741
0.0081136702 -0.0024739541 0.024720151
0.0085316477 -0.002444627 0.024744757
0.0090582334 -0.0024324439 0.024749408
0.0097203422 -0.0024354057 0.024791725
0.014648341 -0.0022779934 0.024695273
0.015073547 -0.0020951678 0.024696415
0.015535821 -0.0020893321 0.024712648
0.01606709 -0.0021190424 0.024705013
0.016570779 -0.0021781456 0.024708699
0.017265435 -0.0021371692 0.024782982
-0.020915408 -0.0016569559 0.024961613
-0.018449536 -0.0017896218 0.024843482
-0.017941153 -0.0018871177 0.024839001
-0.017468806 -0.0018987325 0.024810119
-0.016961813 -0.001927149 0.024797317
-0.016429633 -0.0019666925 0.024803398
-0.015970364 -0.0019586515 0.02480654
-0.015455014 -0.001986444 0.024793146
-0.014940162 -0.0019628797 0.024797579
-0.014228497 -0.0019649318 0.024839688
-0.013969518 -0.0015023558 0.024770932
-0.013427257 -0.001817322 0.02487232
-0.010873109 -0.0016731268 0.024856811
-0.009952385 -0.0017559795 0.024826024
-0.0094160233 -0.0015792401 0.024762115
-0.0089115668 -0.0015979906 0.024767069
-0.0084485672 -0.0015827095 0.024760047
-0.0079446314 -0.0016409379 0.024765417
-0.0074367402 -0.0015961926 0.024758605
-0.0069532394 -0.0016230692 0.024769785
-0.0064149546 -0.0016420962 0.024777804
-0.00597551 -0.0016417713 0.024718456
-0.0054728561 -0.0016107907 0.024740305
-0.0049919118 -0.0015014501 0.024678247
-0.0029924465 -0.0015347749 0.024613766
-0.0023883232 -0.0016863476 0.024681775
-0.0019286186 -0.0016871281 0.024748871
-0.0014350808 -0.001733172 0.024735402
-0.00093684753 -0.0017589484 0.024742957
-0.00041655952 -0.0017593408 0.02476039
0.00011022389 -0.0017965463 0.024738314
0.00060095603 -0.0018105612 0.02475182
0.0010989201 -0.0017470334 0.024814172
0.0017316113 -0.001771866 0.024844255
0.0043610823 -0.0016584269 0.02466929
0.0050584348 -0.0017024274 0.024699969
0.005581609 -0.0017726674 0.024753042
0.0060577663 -0.0018652898 0.024716325
0.0065359985 -0.0018618284 0.024673648
0.0070789112 -0.0019626729 0.024694143
0.0075564799 -0.0018751964 0.024726011
0.008040728 -0.0019491098 0.024733454
0.0085580964 -0.0019414253 0.024732169
0.0090399086 -0.0019491614 0.024732383
0.0095623452 -0.0019723349 0.024757594
0.010246698 -0.0018967043 0.024735317
0.010710299 -0.0016964887 0.024682892
0.013554184 -0.001551154 0.024748523
0.014119176 -0.0017450345 0.024721026
0.014532718 -0.0015470823 0.024681047
0.0150413 -0.0016121846 0.024707194
0.015572078 -0.0015983315 0.024687555
0.016038211 -0.0016108644 0.024701165
0.016563613 -0.0016559921 0.024688078
0.01701395 -0.0016207537 0.024723327
0.017560245 -0.0015814179 0.024729954
0.018034322 -0.001575949 0.024853067
0.02061601 -0.0016067919 0.02461471
0.021082086 -0.0016851672 0.02457054
0.021623632 -0.0017252074 0.024604872
-0.021206871 -0.0013560548 0.024928302
-0.020453479 -0.0013244521 0.024939444
-0.019894296 -0.001321396 0.024937661
-0.019328481 -0.0012756607 0.024935503
-0.01888328 -0.0013133357 0.024899211
-0.018361662 -0.0013443901 0.024788288
-0.0179532 -0.0014066023 0.024782376
-0.017406572 -0.0013861877 0.024808666
-0.016920254 -0.0014164897 0.024772368
-0.016439024 -0.0014363568 0.024800358
-0.015921015 -0.0014255838 0.024760552
-0.015398672 -0.0014711895 0.024782555
-0.014943838 -0.0014456715 0.02481213
-0.014391776 -0.0012494174 0.024795005
-0.013887996 -0.0010212156 0.024776341
-0.013453875 -0.0012202386 0.024808139
-0.012802425 -0.0012927261 0.024780028
-0.012383098 -0.001028116 0.024761748
-0.011907599 -0.0012100944 0.024760004
-0.011413146 -0.0012200446 0.024746353
-0.010947444 -0.0010428246 0.024762036
-0.010415749 -0.0012746567 0.024764445
-0.0099003855 -0.0010029511 0.024772037
-0.0094165718 -0.0010790591 0.024731807
-0.0089767445 -0.00110078 0.024745865
-0.0083844606 -0.0011058705 0.024766332
-0.0079194829 -0.0011528262 0.024750762
-0.007428824 -0.0011354345 0.024761129
-0.0069179307 -0.0011231733 0.024737246
-0.0064047631 -0.0011349175 0.024751037
-0.0059202802 -0.0011821826 0.024718773
-0.0054126335 -0.0011555866 0.024725156
-0.0049564131 -0.0010884937 0.024703642
-0.0044875303 -0.0012001712 0.024740899
-0.0039490415 -0.0012040921 0.024739249
-0.003416155 -0.0012306402 0.024741855
-0.0028936635 -0.0012002346 0.024723073
-0.0024302797 -0.0012388601 0.024739655
-0.0019386024 -0.0012371312 0.024730789
-0.00139649 -0.0012393577 0.024687957
-0.00091608986 -0.0012770367 0.024734827
-0.0004050649 -0.0012741623 0.024728691
4.4683926e-05 -0.0013007885 0.024754589
0.00058340584 -0.0012898061 0.024719074
0.0010519621 -0.0013412988 0.024714632
0.0016004532 -0.0013082643 0.024744859
0.0020544473 -0.001333794 0.024715547
0.0025864081 -0.0012698913 0.024701122
0.0031147222 -0.0013182038 0.024653599
0.0036280132 -0.0012874317 0.024646919
0.0040210094 -0.0013030092 0.024639387
0.0046187229 -0.0013554224 0.024682846
0.0050615971 -0.00138326 0.024728298
0.0055568595 -0.0014102745 0.02472729
0.0060735079 -0.0013638698 0.024673237
0.0065555396 -0.0013960004 0.024621231
0.00703952 -0.0014355958 0.02465889
0.0076062293 -0.0013921901 0.024692794
0.0081038475 -0.0014561426 0.024734028
0.0085823927 -0.0014335602 0.024723843
0.0090543721 -0.0014898765 0.02472887
0.0095843356 -0.0012544922 0.024726914
0.010067327 -0.0012561299 0.024716821
0.011046978 -0.001241771 0.024701998
0.011568667 -0.0014453898 0.024714062
0.012079092 -0.0012504981 0.024666201
0.012584413 -0.0012609952 0.024750767
0.013091983 -0.0012655341 0.024723297
0.013568068 -0.0010204592 0.024655905
0.014066413 -0.001087837 0.024636114
0.01459357 -0.0010819356 0.024607355
0.015061274 -0.0011130992 0.024633517
0.015606537 -0.0011165941 0.024814025
0.01608468 -0.0011637501 0.024641702
0.016613675 -0.0011314724 0.024684159
0.017085209 -0.0011434628 0.024675246
0.017615696 -0.0011737021 0.024679171
0.018069288 -0.0011541562 0.024709061
0.018576019 -0.001061248 0.024669752
0.019112412 -0.0011134243 0.02466188
0.01959092 -0.0011763074 0.024622573
0.020181712 -0.0013132663 0.02463376
0.020614313 -0.0011767256 0.024664372
0.021110594 -0.0012314345 0.024652457
0.021613693 -0.0012321079 0.024655828
-0.021381818 -0.0008370271 0.024756866
-0.02091885 -0.00084545976 0.02476307
-0.020417241 -0.00087316078 0.024801088
-0.019917084 -0.00089192309 0.024828987
-0.019419052 -0.00083818671 0.024783812
-0.018914029 -0.00086623628 0.024751076
-0.018428793 -0.00093228969 0.024727693
-0.01790286 -0.00089757604 0.024795979
-0.017406568 -0.00087254448 0.02478425
-0.016889822 -0.00091597153 0.024809901
-0.016428815 -0.00090193562 0.024785139
-0.015938047 -0.00093671243 0.024729632
-0.015404949 -0.0009591378 0.024793556
-0.014918119 -0.00097970525 0.0247928
-0.012918387 -0.00050342671 0.024770997
-0.012395127 -0.00052069267 0.024761865
-0.01187331 -0.00050337322 0.024764463
-0.011371342 -0.00051350083 0.024765113
-0.010889187 -0.00055110059 0.024776684
-0.010371157 -0.00057521922 0.024774736
-0.0098734917 -0.00057847274 0.024771089
-0.0093950322 -0.00056943716 0.024721636
-0.0089184195 -0.00059050578 0.024713201
-0.0084331809 -0.00060812919 0.024755301
-0.0079240436 -0.00061385683 0.024772152
-0.0073730499 -0.00063447049 0.024732223
-0.0069259605 -0.00062762422 0.024735754
-0.0064052548 -0.00062902772 0.024733109
-0.005914242 -0.00066398527 0.024738435
-0.0053589214 -0.00065696839 0.024707237
-0.0048923614 -0.00064094155 0.0247126
-0.0044332007 -0.00069866783 0.024716761
-0.0039226888 -0.00063113443 0.024737317
-0.0034170542 -0.00067966164 0.024787011
-0.0029177642 -0.00068792084 0.024712658
-0.0024055031 -0.00069813058 0.024743579
-0.0018941773 -0.00071866298 0.024731223
-0.001397256 -0.00073122402 0.024697615
-0.00094833819 -0.00077277166 0.024677785
-0.00043403899 -0.00074752467 0.024835534
6.554625e-05 -0.00077164226 0.024849558
0.00058106193 -0.00079117791 0.024715161
0.0010561566 -0.00078492292 0.024751795
0.0016196496 -0.00083276036 0.024721593
0.0020814904 -0.0008024032 0.024738239
0.0025942111 -0.00082147482 0.024712088
0.0030893241 -0.00086315768 0.024675757
0.0036151656 -0.00089291687 0.024663452
0.0041102013 -0.00084029604 0.024646653
0.0045841173 -0.00088434923 0.024642717
0.005098572 -0.00089065649 0.024708107
0.0055885436 -0.0008805925 0.024712088
0.0061196126 -0.0009166135 0.024646789
0.0066276263 -0.00092585169 0.024649823
0.0070747901 -0.00093724008 0.024607182
0.0075756954 -0.00091101031 0.024671694
0.0080713248 -0.00091889146 0.024709117
0.0086032823 -0.00095516728 0.024717659
0.0091133546 -0.00096027611 0.024747584
0.0095610693 -0.00052714976 0.024724966
0.010081269 -0.00051878346 0.024703454
0.010587206 -0.00075132714 0.024719328
0.011119345 -0.00054592587 0.024713462
0.011594537 -0.00076215737 0.024699377
0.012085895 -0.00053340645 0.024679724
0.012592226 -0.00056384545 0.024675757
0.013064694 -0.00058050361 0.024710564
0.013587266 -0.00056136242 0.024708215
0.014071842 -0.00057632953 0.024670245
0.014618785 -0.00059534609 0.024681009
0.015127023 -0.00063429843 0.024690596
0.015566833 -0.00062735332 0.024663387
0.016082862 -0.00067334087 0.024679009
0.016598301 -0.00066190539 0.024671784
0.01710139 -0.00064623461 0.024693221
0.017600061 -0.00068196224 0.024712592
0.018088205 -0.00068260636 0.024688149
0.018622067 -0.00065721909 0.02471751
0.019098448 -0.00069948076 0.02467823
0.01960755 -0.00071974972 0.024662895
0.020089945 -0.0006863717 0.024644421
0.020602349 -0.00069235126 0.024633357
0.021088827 -0.00073655846 0.024584565
0.021601021 -0.00076234352 0.024570199
-0.021395838 -0.00033278717 0.024769302
-0.020909317 -0.00030867592 0.024758689
-0.020421172 -0.0003250204 0.024742076
-0.019922074 -0.00036101346 0.024751801
-0.019423462 -0.00036346156 0.024761256
-0.018908961 -0.00037980126 0.024788914
-0.018416122 -0.0003869505 0.02476668
-0.017909495 -0.00042968715 0.024714217
-0.017397372 -0.00038096757 0.0247481
-0.016925856 -0.00042749278 0.024737483
-0.016417217 -0.00038623629 0.024723055
-0.015936648 -0.00043671887 0.024727015
-0.015404258 -0.00045717123 0.024803834
-0.014908621 -0.00046348391 0.024763824
-0.014414256 -0.00049546111 0.024778586
-0.013934266 -0.00044574006 0.024796611
-0.013413003 -0.00026334837 0.024785459
-0.012388281 -4.6371599e-05 0.024784058
-0.011427385 -4.229648e-05 0.024793699
-0.010937882 -6.8938243e-05 0.024778696
-0.010433337 -0.00011242658 0.024750467
-0.0099323979 -8.1844104e-05 0.024752289
-0.0093548317 -0.00010022995 0.02466502
-0.0089454073 -8.9355715e-05 0.024678314
-0.0084078899 -0.00013126392 0.024706481
-0.0079151262 -0.00011358908 0.02474701
-0.0073705441 -0.00015442324 0.0246734
-0.0069095287 -0.00013488001 0.024827372
-0.0063742008 -0.00014025447 0.024705475
-0.0059073651 -0.0001380242 0.024731018
-0.0054620933 -0.00018808148 0.024739329
-0.0049306266 -0.00016726746 0.024753036
-0.0043724943 -0.0002049132 0.024736581
-0.0038806216 -0.00021078718 0.024752522
-0.0034252843 -0.00016871473 0.02468734
-0.0029559154 -0.00019604099 0.024681445
-0.0023774693 -0.00022212441 0.024701558
-0.0018796425 -0.00021080721 0.024641782
-0.0014075531 -0.00027986488 0.024688331
-0.00089635467 -0.00027838879 0.024626298
-0.00040141045 -0.00023423843 0.024821211
9.1328751e-05 -0.00028768601 0.024691014
0.00059704622 -0.00030403386 0.024717176
0.0010978822 -0.00029843181 0.02466587
0.0016111648 -0.00035544008 0.024736147
0.0020987331 -0.00030815412 0.024705544
0.002607445 -0.00036220398 0.024739819
0.0030824349 -0.00033545526 0.0247159
0.0035743013 -0.00040505489 0.02474652
0.0040695509 -0.00033392396 0.024727348
0.004602395 -0.00040851368 0.024737787
0.0050827111 -0.00040419656 0.024703788
0.0056344364 -0.00040876603 0.024719318
0.0061012739 -0.00040863309 0.024666039
0.0066061388 -0.00043346715 0.024657317
0.007086474 -0.00048264826 0.02466421
0.0076241419 -0.00043574598 0.024624262
0.0081078969 -0.00046380999 0.024657136
0.008610866 -0.00044401194 0.024715493
0.0090759443 -0.00047918898 0.024711577
0.011615314 -5.1019015e-07 0.024733849
0.012078742 -7.9719932e-05 0.024719045
0.012623503 -5.2400981e-05 0.0247034
0.013139784 -9.504729e-05 0.024713155
0.013594332 -7.6424505e-05 0.0247066
0.014068752 -7.6664728e-05 0.024691643
0.014599244 -4.6790228e-05 0.024690311
0.015075335 -0.00012071943 0.02465977
0.015600916 -8.0347178e-05 0.024686467
0.016098058 -0.00013914309 0.024677612
0.016589051 -8.2880957e-05 0.024684919
0.017055871 -0.00016844505 0.024700085
0.017611556 -0.0001617024 0.024675572
0.018095683 -0.00012818421 0.024703005
0.018667018 -0.00017174112 0.024684306
0.019131342 -0.00018952682 0.024684343
0.019617217 -0.00021824078 0.02462686
0.020059425 -0.00021829852 0.024620963
0.020628661 -0.00026740762 0.02461423
0.021110589 -0.00027402723 0.024632631
0.021582047 -0.00023271143 0.024680167
-0.021410927 0.00018013641 0.024762256
-0.020924238 0.00018981472 0.024807055
-0.02041107 0.00014143297 0.024794951
-0.019926066 0.00014110177 0.024805123
-0.019445039 0.00010971969 0.02477655
-0.018933665 0.00010645797 0.024796698
-0.018387713 5.9976592e-05 0.024784615
-0.017875703 9.6378557e-05 0.024771959
-0.017385025 0.00010793703 0.024763469
-0.01689679 8.1038976e-05 0.02478148
-0.016409051 8.3005289e-05 0.024737839
-0.015911767 5.243317e-05 0.024772076
-0.015414275 5.1412382e-05 0.024774501
-0.01494524 8.9904061e-06 0.024788696
-0.014413092 1.1977972e-05 0.02479456
-0.013890124 0.00024213092 0.024794359
-0.012904886 0.00025381119 0.02477036
-0.012384239 0.00048763899 0.0248324
-0.011876903 0.00024331253 0.024823252
-0.011390075 0.00044830941 0.024803249
-0.010912293 0.00042720005 0.024786931
-0.010397362 0.00039767404 0.024784306
-0.0099099642 0.00043041629 0.024746137
-0.0093540531 0.0004235612 0.024759093
-0.0088965409 0.00042200115 0.024644835
-0.0083963675 0.0004278922 0.024694037
-0.0079057431 0.00041362221 0.024708228
-0.0073723351 0.00040899121 0.024687327
-0.0068769241 0.00038118515 0.024638662
-0.0063776411 0.00038101 0.024697676
-0.0058484077 0.00034811796 0.024730826
-0.0053790435 0.00034656262 0.024734179
-0.004868078 0.00036404331 0.024712438
-0.0043695029 0.00032788218 0.024710068
-0.0039156242 0.00030572744 0.024708709
-0.0034128507 0.00027244224 0.024740601
-0.0029179738 0.00028587313 0.024703864
-0.0023911977 0.00031560674 0.024727201
-0.00188735 0.00024205002 0.024678405
-0.0013794694 0.00026070065 0.024664611
-0.00089567644 0.00021576244 0.024665702
-0.00036911282 0.00019625542 0.024729569
7.6333992e-05 0.00023261204 0.02471533
0.00062642456 0.00024278273 0.024656527
0.0011003604 0.00020761559 0.024633836
0.0016022413 0.00015614631 0.024699382
0.0021108643 0.00016752738 0.024683446
0.0026206798 0.00017314282 0.024713861
0.0031219018 0.00017153381 0.024739962
0.0036146869 0.00013023705 0.024756089
0.0041021057 9.7266806e-05 0.024730543
0.0046063438 0.0001353097 0.024728581
0.0051094992 0.00012517959 0.024708163
0.0056393845 0.00010231588 0.024724165
0.0061626183 8.8209694e-05 0.024674293
0.0066094892 9.3766081e-05 0.024826149
0.0070705446 2.742873e-05 0.02467042
0.0075971717 3.6641839e-05 0.024689371
0.0081074983 0.00026254036 0.024696894
0.0085954908 3.6079087e-05 0.024712246
0.0090963393 2.8643699e-05 0.024705634
0.0096185133 2.7580303e-05 0.0247311
0.010092746 6.4510445e-05 0.024711886
0.010611351 0.00026956809 0.024733622
0.011086795 4.0931627e-06 0.024738193
0.011633774 0.00044755865 0.024747204
0.012170086 0.00040198886 0.024723265
0.012634249 0.0004091739 0.024716062
0.013094173 0.00042110716 0.024724146
0.013620792 0.00041191187 0.024709743
0.014129535 0.00040135987 0.024677798
0.014631219 0.00041221373 0.0246854
0.015121882 0.00040812825 0.024663007
0.015623799 0.00041278079 0.024687821
0.016098775 0.00035208662 0.024695994
0.016663555 0.00036833854 0.02469963
0.017169941 0.000331913 0.024686368
0.017631827 0.00035847921 0.024702089
0.018174412 0.00036698999 0.024599353
0.018594312 0.00030036073 0.024620004
0.019116662 0.00030316401 0.024613043
0.019578336 0.00026836584 0.024638204
0.02007586 0.00027223316 0.024670698
0.020628948 0.00024957338 0.024667447
0.021119809 0.00023504347 0.024684198
0.021624271 0.00021541805 0.024670625
-0.021412048 0.0006770828 0.024713079
-0.020910235 0.00055687479 0.024801094
-0.020426847 0.0005855913 0.024826562
-0.019923488 0.00056209473 0.024816779
-0.019421594 0.00062990119 0.024833042
-0.018897343 0.00073467108 0.024801284
-0.018320998 0.00063024502 0.024821363
-0.017871512 0.00059091666 0.024790138
-0.017373119 0.00060960022 0.024787543
-0.016899506 0.00059169193 0.024808368
-0.016356096 0.00056533731 0.024776351
-0.015850352 0.000567807 0.02476632
-0.015365274 0.00057025981 0.02478083
-0.014899531 0.00052942248 0.02478499
-0.014359649 0.00052219146 0.024764903
-0.013892977 0.00097185175 0.024777528
-0.013373924 0.00054498436 0.024818396
-0.012861679 0.00087718113 0.024899121
-0.012128998 0.00087315182 0.024922108
-0.011873048 0.00083401572 0.024882672
-0.011347244 0.00097056903 0.024901625
-0.010872222 0.00091324642 0.024900191
-0.010363519 0.00095011911 0.02485997
-0.0098547721 0.00088333001 0.024788657
-0.0093536489 0.00091850536 0.024739128
-0.0089097153 0.00091975904 0.024726998
-0.008394002 0.00086380786 0.024687476
-0.0078842836 0.00089505978 0.024630232
-0.0073244632 0.00087850145 0.024655234
-0.0068638045 0.00083859375 0.024725802
-0.006342357 0.00085348624 0.024712307
-0.0058741737 0.00085399608 0.024748404
-0.0053945398 0.00085748825 0.024750745
-0.0049339365 0.00075383222 0.024797037
-0.0043655261 0.0006976279 0.024723524
-0.0038693417 0.00077235966 0.024789628
-0.0034133494 0.00076370838 0.024735624
-0.0029020631 0.00075547316 0.024854504
-0.0024104835 0.00081404333 0.024732448
-0.0018964953 0.00074256153 0.024745544
-0.0013815466 0.00070649391 0.02465171
-0.00092840032 0.00076025294 0.024682365
-0.00039580377 0.00071477401 0.024855975
0.00012408709 0.00069347827 0.024747394
0.00065169577 0.00071961014 0.024730477
0.0011392767 0.00070658617 0.024665795
0.0015823718 0.00065498136 0.024708839
0.0020760216 0.00064758753 0.024718797
0.0026571569 0.00067049061 0.024729777
0.0031350099 0.00063570822 0.024742769
0.0036103018 0.00076490775 0.024689415
0.0041071638 0.00077219482 0.024717454
0.0046541872 0.0007929214 0.024715129
0.0050923508 0.00064435892 0.024721609
0.0056088921 0.00059699756 0.024842462
0.0061069885 0.00059352373 0.024670294
0.0066236784 0.00053546595 0.024675725
0.0070948936 0.00054458471 0.024642229
0.0076527284 0.00054939458 0.024711769
0.0086400164 0.00050206931 0.024693977
0.0091116652 0.00053000823 0.024733439
0.0095929345 0.00051476876 0.024718182
0.010085541 0.00051647244 0.024708172
0.011088897 0.0007005618 0.024743304
0.011602389 0.00082547165 0.024705997
0.012123046 0.00079313264 0.024727082
0.012674354 0.00078756467 0.024701986
0.013138245 0.00093005918 0.024706764
0.013650615 0.00091767288 0.024837766
0.01412102 0.00094611372 0.024705177
0.014625001 0.00093091384 0.024678836
0.015118827 0.00092404941 0.024638681
0.015623598 0.00091785006 0.024651268
0.016114458 0.00085728196 0.024719663
0.016653517 0.00089700485 0.024660969
0.017134404 0.00084943732 0.024618309
0.017618267 0.00078337628 0.024634205
0.018121123 0.00083953852 0.024662763
0.01861985 0.00082765333 0.024664845
0.019110374 0.00081984501 0.024668066
0.019666085 0.00075069349 0.024661707
0.020169154 0.00072152773 0.024647955
0.020628829 0.0008180883 0.024635132
0.021085905 0.00075165939 0.024666917
0.021646073 0.00075438106 0.024711518
-0.018249486 0.0012614531 0.024876572
-0.017835896 0.0010886639 0.024818312
-0.017386915 0.0010903282 0.024794864
-0.016899275 0.001077201 0.024792219
-0.016377116 0.0010694936 0.024789896
-0.015902599 0.0010388705 0.024790321
-0.015387472 0.0010218443 0.024775304
-0.014880506 0.0010490534 0.024783857
-0.014385554 0.001251797 0.024786644
-0.013908359 0.0014043915 0.024797374
-0.013389742 0.0011921453 0.024838831
-0.012852486 0.0012552746 0.024916951
-0.010862192 0.001247406 0.024912115
-0.010345206 0.0014028838 0.024898708
-0.0099361464 0.0014006477 0.024881661
-0.0093700513 0.0014202663 0.024827532
-0.008902641 0.0014550136 0.024722226
-0.0083851572 0.0013821293 0.02472428
-0.0078699961 0.0014020882 0.024665792
-0.0073695797 0.0014083482 0.02467938
-0.0068436181 0.0013960886 0.024753531
-0.0063608745 0.001338831 0.024737965
-0.0059164157 0.0013527345 0.024733154
-0.0053651719 0.0012106582 0.024804564
-0.0047300849 0.0010731653 0.024911936
-0.0037377172 0.00115743 0.024874607
-0.0033695558 0.0011427855 0.024818342
-0.0028351839 0.0012705271 0.024787568
-0.0023279211 0.0012456756 0.024784116
-0.0018714019 0.0012254674 0.024759756
-0.0013380978 0.0012509471 0.024737792
-0.00085300277 0.0012436188 0.024854973
-0.00037686096 0.0012318566 0.02483663
0.00011449773 0.0012296054 0.02472727
0.00062065432 0.0012165704 0.024712581
0.0011132169 0.0012131507 0.024710689
0.0016204976 0.0011978871 0.024721744
0.002112868 0.001191156 0.024744201
0.0026228065 0.001137428 0.024794299
0.0030715719 0.0010962798 0.024872193
0.0051866146 0.0012575126 0.024744406
0.0056578247 0.0012795951 0.024780126
0.0061530373 0.0011223902 0.024848338
0.0066449791 0.0011024575 0.024702424
0.0071064336 0.0011063414 0.024703229
0.0075888224 0.0010311138 0.024691805
0.0081074052 0.0010870558 0.024703957
0.0086725969 0.0010412612 0.024679737
0.0091214757 0.001050145 0.024712449
0.0096009802 0.0010033706 0.024702258
0.010199485 0.0013079821 0.02478916
0.010629827 0.0010367845 0.024787942
0.013238552 0.0012149797 0.024534054
0.013656205 0.0013240851 0.024813989
0.014111692 0.0014518277 0.024683032
0.014671247 0.0014056168 0.024687454
0.015199193 0.0013717341 0.024646226
0.015609417 0.0013821766 0.024613759
0.016118068 0.001361465 0.024670934
0.016653342 0.0013377067 0.024678271
0.017132802 0.0013471588 0.02467053
0.017655361 0.0013181124 0.024663256
0.018123645 0.0013210948 0.024655927
0.0186124 0.0012735475 0.024665749
0.019081011 0.0011641054 0.024656937
0.019663451 0.0010823323 0.024706492
0.020192223 0.0011229202 0.024695572
0.020623073 0.0012280057 0.024721928
0.021197699 0.0012343798 0.024765331
0.021645429 0.0012408742 0.024780218
-0.017835384 0.001522938 0.024908373
-0.017303158 0.0015459454 0.02484753
-0.016833212 0.0015919642 0.024833553
-0.016341843 0.0015704287 0.024801373
-0.015853014 0.0015659845 0.024835408
-0.015391213 0.0015236633 0.024846662
-0.014837664 0.0017675617 0.024786638
-0.014417028 0.0019134744 0.02469144
-0.0098056728 0.0018193175 0.024862021
-0.0093500186 0.0019357633 0.024826484
-0.0088564912 0.0019402092 0.024767991
-0.0083379922 0.0018784403 0.024788652
-0.0078722918 0.0018763171 0.024729449
-0.0073392363 0.0018816271 0.024764111
-0.0068896618 0.0019410779 0.024725506
-0.0064162817 0.0018118416 0.024760729
-0.0059769894 0.0016820172 0.024639102
-0.0026870347 0.0016067236 0.024640838
-0.0023372627 0.0017330182 0.024670059
-0.0018459848 0.001717528 0.024741368
-0.0013344784 0.0017165201 0.024762614
-0.00085435098 0.0017603178 0.024727425
-0.00036297721 0.0017212532 0.024846423
0.00011090841 0.0017086044 0.024751037
0.00063593592 0.0017308048 0.024725325
0.0011011623 0.0016782859 0.024729604
0.0016425557 0.0016320968 0.024758533
0.0020731811 0.0016512279 0.024815619
0.0025116375 0.0016210756 0.024877401
0.0061656525 0.0016033861 0.024845771
0.00664454 0.0015379745 0.024748992
0.0071271043 0.0015978431 0.024649628
0.0076674912 0.0015276188 0.024662161
0.0081539936 0.0015998179 0.024595583
0.0086634746 0.0015522798 0.024637142
0.0091266697 0.001527644 0.024659254
0.0096288044 0.0017500169 0.024751673
0.014216067 0.0018899917 0.02482827
0.014654009 0.0018990485 0.024675062
0.015140888 0.0019027418 0.024682818
0.01563484 0.0018850763 0.024642581
0.016129384 0.0018673445 0.02469049
0.016681358 0.0018745206 0.024669968
0.017161885 0.0018122357 0.024686025
0.017619323 0.0018346306 0.024692209
0.018110128 0.00179892 0.024747588
0.020877108 0.0016623324 0.024844248
0.021177087 0.0016062857 0.024844946
0.021578025 0.0016161485 0.024871556
-0.017281996 0.002069819 0.02488449
-0.016866514 0.0021010528 0.024869679
-0.016365856 0.0020708197 0.024818407
-0.015843663 0.0020823458 0.024833977
-0.015344409 0.0020388279 0.024780175
-0.014700219 0.0024565267 0.024830148
-0.0096301027 0.0021897599 0.02482949
-0.0092945322 0.0024528843 0.024812903
-0.0088461721 0.0024064002 0.024779484
-0.0083262622 0.0023981403 0.024764331
-0.0078291856 0.0023462167 0.024774997
-0.007338237 0.0023601095 0.024751462
-0.0066712736 0.0022355495 0.024785651
-0.0018234069 0.0021503367 0.0246813
-0.0013566634 0.0022395526 0.024739843
-0.00089259923 0.0022273408 0.024771538
-0.00031786389 0.0022256591 0.024762774
0.00010886602 0.0021823288 0.024756206
0.00061709154 0.0021683532 0.024784589
0.0011225468 0.002197955 0.024783503
0.0016446875 0.0021877373 0.024796456
0.002072341 0.0021611718 0.024833588
0.006711062 0.0020548373 0.024867006
0.0071384311 0.0020652481 0.024725374
0.0076683564 0.0020702588 0.024699979
0.0081544621 0.0020170771 0.024731716
0.0086496491 0.002011098 0.024674416
0.0091712056 0.0020712244 0.024788583
0.014290608 0.0023827518 0.024875602
0.014758686 0.0023264717 0.024839958
0.015157131 0.0024033794 0.024685478
0.015711281 0.0023555267 0.02467091
0.016149774 0.0024143448 0.024733556
0.016638409 0.0023550028 0.024730129
0.017159598 0.0022646638 0.024768807
0.01759241 0.0022818474 0.024813522
-0.017110771 0.00259626 0.024828942
-0.016854417 0.002553131 0.024854572
-0.016392887 0.0026147454 0.024838775
-0.01585898 0.0025226995 0.024812842
-0.015382327 0.0025697141 0.024793589
-0.014980814 0.0029261438 0.024878014
-0.0091034593 0.0029563531 0.02471932
-0.0087817097 0.002907919 0.024737108
-0.0083402414 0.0029279981 0.024698185
-0.00783691 0.0028250511 0.024749417
-0.0073652472 0.0028945007 0.024783265
-0.0068122782 0.0026657993 0.024830665
-0.0012769562 0.0026586247 0.024759069
-0.00087393902 0.0027403412 0.024724258
-0.00036321545 0.0027228349 0.024787501
0.00017737481 0.0026734115 0.024792081
0.00068841083 0.0026561045 0.024830697
0.0011489342 0.0026449335 0.024791265
0.0016642772 0.0026939944 0.024805831
0.0068755522 0.002538315 0.024863662
0.0071983035 0.0027674851 0.024776902
0.0076230252 0.0025540164 0.024698393
0.0080996798 0.0025316654 0.024745382
0.0086906292 0.0025478746 0.024803858
0.0092471037 0.0026979689 0.024812276
0.0146669 0.0029225005 0.024827719
0.015159488 0.0029271892 0.02480277
0.015659116 0.0028500322 0.024689931
0.016140707 0.0028390731 0.024744136
0.01668001 0.0028504799 0.024754468
0.017035432 0.0028477139 0.024793994
-0.016794378 0.0031011924 0.024826964
-0.016395148 0.0031374253 0.024811674
-0.015845999 0.0030339644 0.024807528
-0.015392886 0.0030209376 0.024826698
-0.014967361 0.0034997636 0.024774509
-0.0087804236 0.00337671 0.024837429
-0.0083520226 0.0034530077 0.024758946
-0.0078432132 0.0033569683 0.024737392
-0.0072775744 0.0034017286 0.024809828
-0.00083381939 0.0032264416 0.024744989
-0.00031922269 0.0032815305 0.024756012
0.00016615517 0.0031443306 0.02483556
0.0006658989 0.0032549615 0.024813207
0.0011565275 0.0031975193 0.024785222
0.0015763231 0.0030808882 0.024729645
0.0076907207 0.0030659968 0.024744488
0.0081532495 0.0030888251 0.02470658
0.0088181403 0.0033064655 0.024820739
0.014424955 0.0032885852 0.024988109
0.014765645 0.003311313 0.024800502
0.015164891 0.0034050499 0.024733827
0.015671946 0.0034078783 0.024731442
0.016194066 0.0033573068 0.024765328
0.016673295 0.003388399 0.024787687
0.017096411 0.0033732466 0.024741935
-0.016746918 0.0036036056 0.024781229
-0.01632509 0.0035669822 0.024795653
-0.015785757 0.003561245 0.024820516
-0.015331659 0.0035475537 0.024866059
-0.01497302 0.003959442 0.024800519
-0.0087058097 0.0038160959 0.024915792
-0.0083093122 0.0039416673 0.024755193
-0.0078683477 0.0039205435 0.02480294
-0.0072996574 0.0038415578 0.024817845
-0.00073169533 0.003703014 0.024698619
-0.00030057225 0.0037752802 0.024760941
0.00020029373 0.0037259315 0.024800379
0.00070362422 0.0037227722 0.024739418
0.0011584787 0.0036573112 0.024672901
0.0072370274 0.0035421052 0.024813229
0.007736837 0.003539046 0.024730338
0.0081562148 0.0035601556 0.024705717
0.0086266361 0.0035859635 0.024717605
0.014905235 0.0037712473 0.024877757
0.015182372 0.0039028556 0.024843823
0.015754402 0.0039275964 0.024698146
0.016179588 0.0038859609 0.024736691
0.016812235 0.0037937337 0.024773609
-0.017074041 0.0041098879 0.024902504
-0.016731502 0.0041130879 0.024784567
-0.01637233 0.0040537477 0.024774818
-0.01584943 0.0040676589 0.024775531
-0.015276712 0.0040577166 0.02484763
-0.0086969361 0.0043933848 0.024869774
-0.0082351742 0.0043549435 0.024800651
-0.0077623473 0.0043907138 0.024751943
-0.0072829565 0.0044030254 0.02482011
-0.0069202618 0.004365324 0.024721317
-0.00067530561 0.0042351782 0.024709219
-0.00031331414 0.0042646094 0.024777435
0.00022090925 0.0041926648 0.024789285
0.00071539055 0.0042300629 0.024769105
0.0012490191 0.0042747841 0.024848843
0.0072910315 0.0040358491 0.0247874
0.0077418368 0.004074737 0.024738418
0.0082122069 0.004052713 0.024707578
0.0086705685 0.0040287143 0.024745584
0.0090531614 0.0042019482 0.024573307
0.014855444 0.0044008847 0.024843626
0.015227784 0.0043976861 0.024885364
0.015748935 0.0043476331 0.024751628
0.016192539 0.0043898248 0.024682945
0.016691968 0.0043550399 0.024764795
0.017063811 0.0044956175 0.02482889
-0.016772566 0.0045153592 0.024644451
-0.016353372 0.0046017184 0.024735555
-0.0157902 0.0045981142 0.024797777
-0.015288093 0.0046028439 0.024847882
-0.014886066 0.0045192488 0.024820112
-0.0088161025 0.0048668608 0.02487536
-0.0082270019 0.0049127135 0.024865534
-0.0077025015 0.0048461854 0.024792299
-0.0072289584 0.0048509375 0.024828827
-0.006895049 0.0048335544 0.024791231
-0.00068132998 0.0047690836 0.024750683
-0.00029546395 0.004714027 0.024729796
0.00015111058 0.0046883388 0.024776593
0.00070310524 0.0046858424 0.024775747
0.0012574177 0.0046909493 0.024830021
0.0067167245 0.0045860745 0.024605745
0.0072666975 0.0045582266 0.024695473
0.0076834466 0.0046116067 0.024745576
0.0081907036 0.0045590047 0.024749942
0.008690061 0.0047739353 0.024730757
0.0092720231 0.004611908 0.024546223
0.014684249 0.004903174 0.024855604
0.015261212 0.0049267523 0.02475575
0.015722694 0.0048802174 0.024685506
0.016211946 0.0048924051 0.024661072
0.016696552 0.0048756939 0.024747849
0.017122321 0.0049946588 0.02482068
0.017632648 0.0048396168 0.024992779
-0.016832046 0.0050400984 0.024603739
-0.016269566 0.005067701 0.024734411
-0.015854459 0.0051213354 0.024791194
-0.015219756 0.0050222282 0.02486214
-0.014856299 0.0050473399 0.024842527
-0.01448725 0.0051425723 0.024995731
-0.0086851921 0.0054534781 0.024809828
-0.0082862712 0.0053968281 0.024795279
-0.0077148359 0.0054164981 0.024771297
-0.0073140445 0.0053745564 0.024771731
-0.0067665628 0.005353881 0.024859015
-0.00074834563 0.005218687 0.024784127
-0.00025268504 0.0052101784 0.024734311
0.00023024832 0.0052576708 0.024739036
0.00072166673 0.0052252794 0.02479005
0.0011840796 0.0052234214 0.024827335
0.0015345602 0.005211872 0.024801407
0.0062885992 0.0050747623 0.024681155
0.0067356392 0.0050670328 0.024647055
0.0071891183 0.0051135188 0.024667423
0.007710488 0.0051082796 0.024656041
0.0081993258 0.0051157828 0.024696469
0.0091635706 0.0050107306 0.024562374
0.009586568 0.0050177248 0.024514055
0.014287387 0.0052542146 0.024884973
0.015247706 0.0054493072 0.024706664
0.015726719 0.0054018022 0.024688303
0.0161893 0.0053393585 0.024659051
0.016733287 0.0054480303 0.024689
0.017216502 0.0053319745 0.024773071
0.017520962 0.0053904536 0.024795653
-0.017299589 0.0056687216 0.024645468
-0.016786901 0.0056015793 0.024704358
-0.01624332 0.0055618063 0.024754627
-0.015792673 0.0055725202 0.02483483
-0.01526014 0.0055922507 0.024874946
-0.014868433 0.0055359937 0.024826206
-0.0092716683 0.005738534 0.024812669
-0.0087553896 0.005957081 0.024720188
-0.0082538761 0.0058604637 0.024759972
-0.0077889818 0.0058816583 0.024868339
-0.0072931326 0.0058422014 0.024744442
-0.0067993905 0.0058839256 0.024771059
-0.0063771298 0.0057803551 0.024856055
-0.0021626805 0.0059884521 0.024879502
-0.0017738863 0.0058319913 0.024869565
-0.0012744776 0.0057591498 0.024830136
-0.0007400153 0.0057294755 0.024748757
-0.00027270569 0.0057475041 0.024733858
0.00023515848 0.0056857346 0.024731778
0.00073029357 0.005713155 0.024717402
0.001225723 0.0057139588 0.024726
0.0017042798 0.0057365717 0.024742872
0.0021025222 0.0056701866 0.024846496
0.005890551 0.0056798859 0.024715137
0.0062410505 0.0055603776 0.024691518
0.0067556282 0.0055878712 0.024662184
0.00725473 0.0055765132 0.024651885
0.0077203498 0.0055658808 0.024616629
0.0081748916 0.0055481871 0.024641475
0.0086775525 0.005513255 0.024680497
0.0092015667 0.0055204406 0.024662526
0.0097571593 0.00552605 0.024587912
0.010111736 0.00565104 0.024512924
0.013702303 0.005986332 0.024855394
0.014217379 0.0057104304 0.024802007
0.014844866 0.0057587987 0.024703439
0.015229557 0.0059150974 0.024681324
0.015764024 0.0058539268 0.024690781
0.016236216 0.0059172479 0.024660464
0.016772177 0.0058693523 0.024658803
0.017196249 0.005864236 0.024685521
0.017775185 0.0057927677 0.024778098
0.018089086 0.0059873979 0.024789246
-0.017677439 0.0061712633 0.024618458
-0.0172578 0.0060638655 0.024746701
-0.016788419 0.0060855374 0.024784159
-0.016300049 0.0060195941 0.024754371
-0.015767785 0.0060685677 0.024814308
-0.015260056 0.0060452139 0.024844257
-0.014752352 0.0060500088 0.024860907
-0.014366221 0.0061339047 0.024757853
-0.013744131 0.006488475 0.02487601
-0.0097273886 0.0064860876 0.024723712
-0.0092715919 0.0064132838 0.024689287
-0.008764971 0.0064192242 0.024726359
-0.0082631949 0.0063789506 0.02485634
-0.0077501098 0.0064125964 0.024824586
-0.0072842101 0.0063721081 0.02469545
-0.0067515778 0.0063991826 0.024679678
-0.0062529454 0.0063446737 0.024733186
-0.0057621319 0.0063855387 0.024698773
-0.004751619 0.0064343195 0.024841668
-0.0032469477 0.0064074663 0.024999805
-0.0027281658 0.0063971379 0.024855955
-0.0022769868 0.0062495791 0.024881372
-0.0017305252 0.0062767207 0.024814876
-0.0012493996 0.0062741186 0.02473091
-0.00079412386 0.0062298928 0.024733001
-0.00025933702 0.0062093721 0.024704287
0.00024334667 0.0062320158 0.024725175
0.00074866717 0.0062186406 0.024672873
0.0012161629 0.0062527871 0.024636075
0.0017203202 0.006217191 0.024657371
0.0022145922 0.006192598 0.024710631
0.0026964843 0.0063015129 0.024799664
0.005322264 0.0061824508 0.024650119
0.005778743 0.006111417 0.024656903
0.0062349308 0.0060885381 0.024632206
0.0067518232 0.0061240182 0.024654033
0.0072265398 0.0060294 0.024622049
0.0077311778 0.0060483888 0.024653448
0.0082047638 0.006003689 0.024630593
0.0087505057 0.0060340511 0.024702361
0.0092458948 0.0062536579 0.024697691
0.0096881017 0.0060452744 0.024683552
0.010243428 0.0062483503 0.024651654
0.01067618 0.0062503507 0.024633685
0.013277111 0.0062800795 0.02475905
0.01375705 0.0064418721 0.024753951
0.0142946 0.0064609433 0.024690155
0.014754514 0.0064383643 0.024654506
0.015250077 0.0063726371 0.024697412
0.015713949 0.006354467 0.024672063
0.016226729 0.0064129699 0.024676915
0.016756482 0.0063475864 0.024664521
0.017266743 0.0063474891 0.024665829
0.017727073 0.0063372767 0.024659602
0.018194208 0.0063359253 0.024621008
0.018624321 0.0064256564 0.02451146
0.020983733 0.0064339354 0.024726173
0.021320924 0.0063136704 0.024709616
0.021729462 0.0063275085 0.024667749
-0.021287628 0.006767991 0.024793027
-0.018625585 0.0067391261 0.024577625
-0.018184677 0.0065959413 0.024631355
-0.017755874 0.0065739416 0.024753846
-0.017265607 0.0065922649 0.024758242
-0.016748153 0.0066058836 0.024769863
-0.016257662 0.0066025821 0.024783183
-0.015764404 0.0065637701 0.024809632
-0.015233387 0.0066074049 0.024833558
-0.014708754 0.0065786187 0.024842575
-0.014234752 0.0065127984 0.024821449
-0.011255678 0.0068187658 0.024783121
-0.010801125 0.0066639464 0.024806619
-0.01023422 0.0067428676 0.024786085
-0.0097675696 0.00693803 0.024715194
-0.0092664137 0.0068917377 0.024712674
-0.0087787518 0.0069034472 0.024720268
-0.0082228463 0.006903138 0.02486125
-0.0077768373 0.0068600145 0.024670575
-0.0072380397 0.0068361121 0.024832811
-0.0067510949 0.0068642632 0.024655243
-0.0062757758 0.0068463287 0.024651064
-0.0058067972 0.0068217134 0.024676174
-0.0052865851 0.0066823666 0.024696067
-0.0047831535 0.0068654749 0.024660993
-0.0042509371 0.0066796457 0.024738282
-0.0037159247 0.0069119367 0.024690785
-0.0031538792 0.0066843615 0.024780033
-0.0027665158 0.0068096197 0.024727643
-0.0022419039 0.0067605115 0.024712648
-0.0017666754 0.006785878 0.024657689
-0.0012669172 0.0067508672 0.024656342
-0.00076936907 0.0067391302 0.02460804
-0.00020854524 0.0067443573 0.02463791
0.00026022736 0.0066942233 0.024670761
0.00075874687 0.0066905022 0.024791202
0.0012617887 0.0066919881 0.02464541
0.0017509002 0.006688016 0.024639167
0.0022150225 0.0066700783 0.024645239
0.0027194968 0.0067052781 0.024704961
0.0031179939 0.0067110397 0.024803873
0.003886678 0.0068159192 0.024723707
0.0042124297 0.0067804377 0.024694188
0.004801699 0.0067254212 0.024633491
0.005248561 0.0066082301 0.024661493
0.0057455758 0.0066037704 0.02465524
0.0062537557 0.0065787192 0.024650037
0.0067344741 0.0065873126 0.024621779
0.0072427457 0.0065786843 0.024610415
0.0077396887 0.0065591992 0.024612708
0.0082233408 0.0065544788 0.024624759
0.008749824 0.0065342472 0.024663884
0.0097645205 0.0065215416 0.024690052
0.011233481 0.0065557864 0.024651723
0.011743364 0.0067972578 0.02469293
0.012210852 0.0067590149 0.024715358
0.012768496 0.0067417086 0.024742477
0.013250731 0.0069664801 0.024646614
0.013764897 0.0069149742 0.02461149
0.014249221 0.0068958849 0.024584293
0.014756028 0.0069057182 0.024675058
0.01527159 0.0069065727 0.024673022
0.015749142 0.0069212168 0.024661319
0.016224518 0.0068643391 0.024683345
0.016766071 0.0068801227 0.024678305
0.017258592 0.0068441755 0.024660215
0.017777789 0.0068656784 0.024679314
0.01822946 0.0067950133 0.024639295
0.018736577 0.0067968178 0.024604917
0.020768188 0.0067850943 0.024651235
0.021206884 0.0067694653 0.024683662
-0.021281859 0.0071545732 0.024779862
-0.020784382 0.0072026635 0.024770567
-0.02023817 0.0072581647 0.024762109
-0.01973949 0.0071595544 0.024716964
-0.019238586 0.0071341824 0.024709335
-0.018781783 0.0071206219 0.024753429
-0.018295273 0.0070954799 0.02477284
-0.017799063 0.007062342 0.02474479
-0.017296892 0.0071017183 0.024762403
-0.016810777 0.0071106851 0.02475602
-0.016215099 0.0071036611 0.024765942
-0.015745159 0.0070311478 0.024758844
-0.015247799 0.0070706671 0.024774209
-0.014735842 0.0070878011 0.024766499
-0.014211664 0.0070464797 0.024793036
-0.013744741 0.0070040673 0.024797248
-0.013236912 0.0072541116 0.024773296
-0.012730701 0.0072866958 0.024763823
-0.012224371 0.0072476408 0.024746891
-0.011736816 0.0072251353 0.024755249
-0.011218041 0.0074591767 0.024722312
-0.010751002 0.0072413273 0.024758223
-0.010241464 0.0074348603 0.024728572
-0.0097574033 0.0074327346 0.024733702
-0.0092174374 0.0074097249 0.024739139
-0.0087326448 0.0073901 0.024715457
-0.0082426667 0.0074011218 0.024858547
-0.0077778981 0.007396752 0.024839733
-0.0072081098 0.0073473472 0.024708318
-0.0067600603 0.0073439018 0.024697898
-0.0062484825 0.0073635532 0.02467913
-0.0057779122 0.0073491842 0.024713989
-0.0052218628 0.0073126121 0.024656082
-0.004727181 0.0073367921 0.024688089
-0.0041963169 0.0072945575 0.024671514
-0.0037031169 0.0073037124 0.024674565
-0.0032525803 0.0072934609 0.024805781
-0.0027498133 0.0072703627 0.024665667
-0.0022582745 0.0072224643 0.024640745
-0.0017464478 0.0072385287 0.02466342
-0.0012502816 0.0072218105 0.024659652
-0.00077971118 0.0072095329 0.024654912
-0.00021596206 0.0072013917 0.024674829
0.00024025305 0.0071997074 0.024640976
0.00076208438 0.0072199772 0.024812473
0.0012540144 0.0071916436 0.024657004
0.0017364891 0.00720071 0.024677405
0.0022556633 0.0071946369 0.02468246
0.0027320466 0.0071241069 0.024630791
0.0032357762 0.0071680038 0.024609495
0.0037638436 0.0071442602 0.024616025
0.0042452491 0.0071564941 0.024683157
0.0047862343 0.0071283169 0.024653109
0.0052816924 0.0071145557 0.024673365
0.0057670865 0.0070954394 0.024696153
0.006256815 0.0070535578 0.02466552
0.0067847581 0.0070421817 0.024621377
0.0072505465 0.0070624659 0.024599768
0.007790844 0.0070732259 0.024803143
0.0082659153 0.0072645713 0.024610996
0.008745118 0.0072597964 0.024612669
0.0092269583 0.0072617456 0.024628738
0.0097790016 0.0070336526 0.024690527
0.01026874 0.0072391639 0.024676841
0.010770174 0.0072507388 0.024696436
0.011261893 0.0072411718 0.024717562
0.011746515 0.0072418964 0.024837479
0.012286302 0.0072285119 0.024824191
0.012777073 0.007251197 0.024817705
0.013260485 0.0074405768 0.024659945
0.013795782 0.0074309041 0.024652286
0.014262065 0.0073896199 0.02466506
0.014765451 0.0074011642 0.024668541
0.015242754 0.0073934342 0.024832446
0.015757922 0.0074032312 0.024840709
0.016268134 0.0073743397 0.024838392
0.016786018 0.0073680468 0.024835568
0.017247345 0.0073021194 0.02469606
0.017734837 0.0073237177 0.024672745
0.018268533 0.0073124385 0.024639573
0.018764652 0.007326087 0.024617374
0.01925957 0.0073325899 0.024635375
0.01977499 0.0072817891 0.024620026
0.020249158 0.0071661593 0.024616338
0.020772845 0.0072622499 0.024628483
0.02128583 0.0072476785 0.024607947
0.021737188 0.0072290101 0.024580548
-0.021722883 0.0076942695 0.024756281
-0.021280263 0.0076680961 0.024732176
-0.020754825 0.0076271081 0.024756039
-0.020242939 0.0076349243 0.024756735
-0.019761052 0.0075936867 0.024739945
-0.019207533 0.0076282755 0.024745932
-0.018750148 0.0076446077 0.024731601
-0.018252136 0.0075863209 0.024720918
-0.0177416 0.007577281 0.024783477
-0.017272362 0.0075654131 0.024762494
-0.016724419 0.0076024388 0.024750829
-0.016210813 0.0075937784 0.024730178
-0.015726943 0.0075720339 0.024756109
-0.015193323 0.0075605134 0.024762589
-0.014723474 0.0075657908 0.024767732
-0.014230778 0.0075258366 0.024750704
-0.013723022 0.00756157 0.024753414
-0.013218103 0.0079846801 0.02472822
-0.012693419 0.0079905903 0.024714513
-0.012190585 0.007969182 0.02474164
-0.011713928 0.0079326043 0.024722815
-0.011227728 0.0079546943 0.0247541
-0.010747181 0.0079122819 0.024744235
-0.01021556 0.0079743229 0.024714908
-0.0097157313 0.0078883553 0.024708347
-0.009210052 0.007886881 0.024702515
-0.0087246755 0.0078951251 0.02472459
-0.0082707899 0.0078660417 0.024711303
-0.0077730073 0.0078989873 0.024832074
-0.0072365636 0.0078581609 0.024835706
-0.0067312033 0.0078546796 0.024692161
-0.0062295087 0.0078867665 0.024677441
-0.005714606 0.007802682 0.024683606
-0.0052286275 0.0078082466 0.024704173
-0.0047205053 0.0078133997 0.024712153
-0.0042702961 0.0077810599 0.024695694
-0.0037665491 0.0078140432 0.024703506
-0.0031855316 0.0077803531 0.024714097
-0.0027148342 0.0077780089 0.024796765
-0.0022263583 0.0077427635 0.024676016
-0.0017731285 0.0077549377 0.024687545
-0.0012448367 0.0077332156 0.024686534
-0.00073964545 0.0077303564 0.024678893
-0.00023372204 0.0077171531 0.024818964
0.00024794543 0.0076955911 0.024822798
0.00077616482 0.007689096 0.024826277
0.0012486253 0.007660456 0.024679085
0.0017987241 0.0077039488 0.024683831
0.002266984 0.0076568504 0.02467305
0.0027946236 0.0076244008 0.024680356
0.0032521931 0.0076621687 0.024679625
0.0037962424 0.0076651471 0.024696648
0.0042888802 0.0076072677 0.024694052
0.0047376137 0.0076055038 0.024697972
0.0052186083 0.0075974683 0.02468396
0.005764409 0.0075715338 0.024673084
0.0062713902 0.007579051 0.024689944
0.006801975 0.0075583244 0.024680085
0.0073215044 0.0075355265 0.024677133
0.0077425907 0.007530502 0.024823621
0.0082519706 0.0075565367 0.024937708
0.0087410696 0.0075188051 0.024991328
0.009753501 0.007514582 0.024671903
0.010811515 0.0079768021 0.0246459
0.011770504 0.007952705 0.02461566
0.012236144 0.0079595298 0.024642754
0.012800982 0.0079271486 0.024673894
0.013274111 0.0079230079 0.02483872
0.013789488 0.0079126703 0.02483758
0.014266269 0.0079174619 0.024663253
0.014812056 0.0078976341 0.024666594
0.015294363 0.0079143047 0.02468089
0.015791235 0.0079282075 0.024674051
0.016247667 0.0078969561 0.024640383
0.016760046 0.0078626834 0.024654143
0.017301742 0.0078312075 0.02466519
0.01781003 0.0078174323 0.024661988
0.018289145 0.00783002 0.024619538
0.018781761 0.0077919466 0.024647877
0.01928604 0.0078007709 0.024820697
0.019747347 0.0077947639 0.024646495
0.02024563 0.0078028874 0.024661252
0.02075764 0.0077849613 0.024650056
0.021249769 0.0077819526 0.024642274
-0.021207629 0.0081739891 0.024780223
-0.020691993 0.0081634251 0.02477207
-0.020197969 0.008109251 0.024736548
-0.01973076 0.0081247138 0.024766199
-0.019256771 0.0080891326 0.024733886
-0.018765388 0.0081515117 0.024765009
-0.018204583 0.0080886595 0.024740247
-0.017732074 0.008089589 0.024700288
-0.017258693 0.0080355713 0.024737636
-0.01677566 0.0080517642 0.024702573
-0.016225018 0.0080595836 0.02473975
-0.015746981 0.0080399849 0.024725493
-0.015232804 0.0080035292 0.02474091
-0.014745517 0.0082842847 0.02474118
-0.014264258 0.0080591319 0.0247369
-0.013765009 0.0080352128 0.024722081
-0.013215915 0.0084697045 0.024709634
-0.01272856 0.0084731188 0.024664966
-0.012182485 0.0084369844 0.024655558
-0.011210768 0.0084912414 0.024689881
-0.010710265 0.0084418897 0.024724342
-0.010218201 0.0084257144 0.024737561
-0.0097315377 0.008472221 0.02472608
-0.0092172958 0.0084145218 0.024704656
-0.0087129809 0.0084715569 0.024700901
-0.008241416 0.0084054023 0.024694949
-0.0077627171 0.0083814859 0.024854194
-0.0072047841 0.0083786082 0.024847616
-0.0067543574 0.0083532324 0.024662202
-0.0062029352 0.0083806794 0.024656059
-0.0057268557 0.0083652493 0.02463226
-0.0051889997 0.0083569679 0.024654699
-0.0047216341 0.0083115613 0.024687024
-0.0042444412 0.0083061028 0.024708757
-0.003738388 0.0083280904 0.024695871
-0.003229711 0.0083275251 0.024708688
-0.0027679962 0.0083019137 0.024719866
-0.0021987776 0.0082952939 0.024698971
-0.0017196578 0.0083068954 0.024706902
-0.001203252 0.0082723759 0.024678776
-0.0007444545 0.008221983 0.024835512
-0.00020398572 0.0081942361 0.024829334
0.00026161014 0.0082223546 0.024819857
0.00077800173 0.0082013402 0.02481227
0.0012519808 0.0081752334 0.024820887
0.0017890249 0.0082076164 0.024825172
0.0022714508 0.0081753917 0.024681646
0.0028105448 0.0081926882 0.024832852
0.0033329432 0.0082142241 0.024820277
0.0037840772 0.0081975237 0.024809994
0.0042540478 0.0081560528 0.024594225
0.0047306935 0.0081321644 0.024624107
0.0052753752 0.0081277955 0.024841655
0.0057738847 0.0081421845 0.024676533
0.0062832525 0.008051849 0.024671366
0.0067673284 0.0081040272 0.024670081
0.0072698779 0.0080548385 0.024679974
0.0077951988 0.0080557521 0.024807904
0.0082649067 0.0080340356 0.024789495
0.0087982286 0.0080482308 0.024633817
0.0092757102 0.0080553191 0.024624785
0.0098083075 0.0082461927 0.024650961
0.010312889 0.0082172193 0.024680845
0.010769906 0.0084612994 0.024659049
0.011282817 0.0082669463 0.02466495
