# .PCD v0.7 - Point Cloud Data file format
VERSION 0.7
FIELDS x y z
SIZE 4 4 4
TYPE F F F
COUNT 1 1 1
WIDTH 1310
HEIGHT 1
VIEWPOINT 0 0 0 1 0 0 0
POINTS 1310
DATA ascii
0.027876223 -0.029716991 0.039395168
0.028334066 -0.029736634 0.039193779
0.028783839 -0.029704327 0.039200708
0.029183524 -0.029620174 0.039252672
0.030482572 -0.029733775 0.0392644
0.030850956 -0.029733945 0.039226685
0.022765473 -0.029329708 0.039293259
0.023349918 -0.029311024 0.039229169
0.023889255 -0.029293347 0.039231494
0.024371525 -0.029272988 0.039265573
0.024757693 -0.02927403 0.0392836
0.025248341 -0.029115018 0.039299041
0.02570034 -0.029209794 0.03910945
0.026211815 -0.029349439 0.039278951
0.026716562 -0.029187614 0.03927692
0.027239101 -0.029313672 0.039166056
0.027694495 -0.029324971 0.039110143
0.028172452 -0.029366661 0.039255776
0.028706504 -0.029141856 0.039315362
0.029204432 -0.029152513 0.039299965
0.029726908 -0.02915594 0.039293539
0.030143587 -0.029241318 0.039246608
0.030705988 -0.029272582 0.039241686
0.022769576 -0.028784201 0.039311908
0.023246735 -0.028744869 0.039375238
0.023669578 -0.028877545 0.039282486
0.025157781 -0.028899111 0.039281026
0.025700528 -0.028892035 0.039245788
0.026289612 -0.028973555 0.039354205
0.03018431 -0.028995257 0.039458357
0.030703928 -0.028748922 0.039224222
0.03117422 -0.02860629 0.039089076
0.030704811 -0.028243255 0.039179817
0.03121024 -0.028187314 0.039180815
0.030107506 -0.027884807 0.039201435
0.030720312 -0.027774919 0.039211363
0.031308655 -0.027722813 0.039212056
0.030495107 -0.027229622 0.039186742
0.030928845 -0.027231615 0.039160006
0.031307004 -0.027260806 0.039168008
0.030486446 -0.026744811 0.039143864
0.030940307 -0.026773546 0.039113812
0.031341959 -0.026803333 0.039188921
0.030444488 -0.026245516 0.039079949
0.030932054 -0.026224341 0.039133981
0.030383077 -0.025761094 0.039104842
0.03088567 -0.025711281 0.039094344
0.031182542 -0.025763905 0.039112106
0.03036999 -0.025276288 0.039080665
0.030916456 -0.025281278 0.039127529
0.031248856 -0.025227848 0.039280199
0.030242164 -0.024740255 0.039092757
0.030923815 -0.024781376 0.039081331
0.031252656 -0.024778794 0.039013796
0.029972784 -0.02423878 0.039251603
0.030355642 -0.024264093 0.039023861
0.030919712 -0.024256209 0.039017662
0.031291239 -0.02423064 0.039274741
0.029595884 -0.023551535 0.039255213
0.030434724 -0.023756094 0.039001606
0.030914571 -0.023757987 0.039260969
0.029626343 -0.023331052 0.039388679
0.03039977 -0.023262681 0.039240494
0.030843768 -0.02326829 0.039267711
0.02994867 -0.022764821 0.039448407
0.03042642 -0.022766814 0.039246306
0.030840829 -0.022790521 0.039497674
0.03123543 -0.022846464 0.039465301
0.02981453 -0.02240343 0.039089929
0.030452641 -0.022232611 0.039467044
0.030238738 -0.021781169 0.039249375
0.030725624 -0.021795787 0.039240621
0.030764759 -0.021243431 0.039440531
0.030746199 -0.020745337 0.039490752
0.030632174 -0.019732896 0.039449655
0.030406857 -0.019170284 0.039398529
0.030709811 -0.019189045 0.039204311
0.03022439 -0.018637385 0.039134007
0.030843265 -0.018713078 0.039314292
0.030250899 -0.018287569 0.039176062
0.030797452 -0.018220009 0.039338805
0.031155588 -0.018251814 0.039323032
0.030214775 -0.01777507 0.039176628
0.030893514 -0.017732602 0.039247371
0.03121651 -0.017748168 0.039405849
0.030435756 -0.017286118 0.039228905
0.030894004 -0.017229354 0.039227404
0.031255789 -0.017254641 0.039281182
0.030430101 -0.016813077 0.03924517
0.030912895 -0.016778369 0.039199077
0.031304721 -0.01669356 0.039258409
0.030474178 -0.016226428 0.039212458
0.030927613 -0.016225718 0.039190553
0.031274844 -0.016271573 0.039231978
0.030448971 -0.015717039 0.039160978
0.030956194 -0.015726203 0.039182704
0.03127557 -0.015773121 0.039148103
0.030397138 -0.015289268 0.039163407
0.030918393 -0.015252413 0.039146055
0.030454969 -0.014783519 0.039145444
0.030914249 -0.014754103 0.039124232
0.030266352 -0.014256878 0.039178737
0.030935761 -0.014246407 0.039097507
0.031149969 -0.014186401 0.039075069
0.030419989 -0.013787377 0.03907406
0.030897472 -0.013786782 0.039081454
0.030453557 -0.013250511 0.039070569
0.030901402 -0.013221627 0.039037064
0.031215377 -0.013195347 0.039203621
0.030367281 -0.012759252 0.039043505
0.030894894 -0.012693224 0.0390529
0.031226283 -0.0127947 0.039008562
0.030401131 -0.012262203 0.039027639
0.030882148 -0.012245037 0.039037626
0.031171734 -0.012188829 0.03900066
0.030369956 -0.011778465 0.039007455
0.030918669 -0.011721963 0.039497767
0.031239156 -0.011681419 0.039492484
0.03037091 -0.011231448 0.039476421
0.030930147 -0.011248786 0.03947027
0.031206843 -0.011086749 0.03943314
0.030902345 -0.010757232 0.039455462
0.031217571 -0.010757659 0.039468616
0.030368645 -0.010263991 0.039469372
0.030915208 -0.010226691 0.039460842
0.031255413 -0.010253185 0.039455622
0.030361738 -0.0097714122 0.039379597
0.030910306 -0.0097522056 0.03940966
0.031285878 -0.009729879 0.039414939
0.030364795 -0.0092180688 0.039406687
0.030884754 -0.0092296852 0.039412871
0.031272992 -0.0092683434 0.039341275
0.03035659 -0.0087644095 0.039373226
0.030908395 -0.0087208617 0.03939005
0.031328745 -0.0087301843 0.039366931
0.030361623 -0.0082262093 0.039397895
0.030942354 -0.008259492 0.039355423
0.031373046 -0.0083143916 0.039394096
0.030343072 -0.0077262968 0.039322384
0.030910516 -0.0077623194 0.039346214
0.031234011 -0.0077980757 0.039445989
0.03036752 -0.0072011952 0.039304197
0.030917771 -0.0072066109 0.039331865
0.03130126 -0.0074226949 0.039270718
0.030418729 -0.0067087514 0.039297007
0.03093119 -0.0066992017 0.039302725
0.03043247 -0.0062344437 0.039251707
0.030928478 -0.0062547675 0.039272502
0.030398488 -0.0057718121 0.039256789
0.030916478 -0.005743009 0.03925762
0.031136792 -0.0055693071 0.039289467
0.030386534 -0.0052553164 0.039251879
0.030920599 -0.0052102767 0.039225373
0.031238046 -0.0052719889 0.039250799
0.030353257 -0.0047648735 0.039222807
0.030850973 -0.0047207726 0.039216105
0.031221079 -0.0047736745 0.039193153
0.030253474 -0.0042564161 0.039198801
0.030933887 -0.004232496 0.039227374
0.031291258 -0.0042072106 0.039162923
0.030345637 -0.0037517427 0.039180003
0.030909132 -0.0037531564 0.039153129
0.0313082 -0.0037181515 0.039131079
0.030252978 -0.0033085118 0.039133176
0.030896083 -0.0032146128 0.039149024
0.031347819 -0.00319151 0.039149463
0.030273084 -0.0027683596 0.039104737
0.030935723 -0.00275499 0.039114859
0.031347308 -0.0027151722 0.039160926
0.030233093 -0.0022618165 0.039081931
0.030892406 -0.0022457964 0.039107256
0.031287163 -0.0022355192 0.039122932
0.030239919 -0.0017058009 0.039121464
0.030897606 -0.001764328 0.039066005
0.031312425 -0.0017713199 0.039096937
0.030342789 -0.0012560911 0.039074466
0.030918604 -0.0012520382 0.039080601
0.031324461 -0.001211457 0.039103054
0.030351151 -0.0007662368 0.039034441
0.030877976 -0.00074516307 0.039036237
0.031299796 -0.00078831846 0.039009664
0.030357635 -0.00024442608 0.039014909
0.030879959 -0.00023812591 0.039029684
0.031364247 -0.00027508708 0.039195582
0.030340206 0.00027009472 0.03947359
0.03091934 0.00025950093 0.039458826
0.031287596 0.00020561623 0.039084658
0.030240156 0.00081598782 0.0394326
0.030907314 0.00077510579 0.039244078
0.031251267 0.00074483803 0.039430551
0.030364864 0.0012671507 0.039443798
0.030942861 0.0012764735 0.039445639
0.031223644 0.0011648074 0.039241478
0.030239057 0.0017726424 0.039306488
0.030918438 0.0017857752 0.039432954
0.030345969 0.0022552605 0.039409857
0.030882895 0.0023007724 0.039394874
0.030218508 0.0028748624 0.03925065
0.030898916 0.0028133821 0.039388344
0.030176284 0.0032963948 0.039338589
0.030908814 0.0033032722 0.039390512
0.031178808 0.0032780478 0.039151758
0.02991366 0.0037676229 0.039433107
0.030338138 0.0037584407 0.039358813
0.030893736 0.0037520386 0.039363477
0.031255826 0.0038320816 0.039272267
0.029916449 0.0042424882 0.039345931
0.030390974 0.0042781578 0.039291009
0.030898247 0.004220922 0.039350756
0.031262096 0.0042754896 0.039258353
0.030211551 0.0047585159 0.039279394
0.030914767 0.0047869459 0.039304923
0.031338181 0.004744485 0.039252333
0.030215837 0.0051593254 0.039331749
0.030896379 0.0052667847 0.039298508
0.03137105 0.0052428874 0.039338581
0.030322781 0.0058124997 0.039280742
0.030911839 0.005763242 0.03927375
0.031419929 0.0057283347 0.039396584
0.030236421 0.006332397 0.039249241
0.030889861 0.0062073623 0.039244436
0.031209001 0.0063257567 0.039163157
0.030232955 0.0067210542 0.039223067
0.030889617 0.0067686075 0.039244257
0.031257827 0.0067767585 0.039232135
0.030229164 0.0072762491 0.039255127
0.030908395 0.007240003 0.039206203
0.031242803 0.0073243356 0.039163161
0.030395294 0.0077264467 0.039169125
0.03088263 0.0077545261 0.039209124
0.031286068 0.0077944417 0.0391904
0.030227493 0.0083478708 0.039124653
0.030904431 0.008242555 0.039137281
0.031271242 0.0082579199 0.039107867
0.029990926 0.0087836413 0.039135899
0.030427555 0.0087561887 0.039117746
0.0308816 0.0087573072 0.03912247
0.031257935 0.0088088578 0.039182708
0.030439893 0.0092482259 0.039117206
0.030887518 0.0092592146 0.039109316
0.031271785 0.0092639849 0.039140619
0.030350337 0.0098109739 0.03907847
0.030914949 0.0097376769 0.039077047
0.031279262 0.0098137092 0.03916144
0.030348029 0.010263924 0.039088644
0.030874811 0.010207523 0.039075308
0.031236146 0.010281034 0.039045148
0.030310661 0.010738751 0.039085675
0.030863829 0.010773148 0.039059903
0.031210992 0.010745224 0.039056782
0.030376526 0.011232768 0.039017219
0.030846484 0.011256287 0.039250083
0.031153195 0.011212215 0.039095219
0.030451126 0.011793052 0.03900747
0.030877186 0.011770843 0.039001018
0.030417267 0.012305824 0.039477084
0.030822478 0.01226927 0.039441913
0.030416386 0.012808169 0.039472144
0.030834867 0.012772355 0.039459251
0.031133028 0.012697924 0.039247159
0.030366078 0.013329218 0.039470717
0.030880919 0.013259148 0.039442394
0.030381899 0.013806177 0.039438713
0.030899955 0.01378023 0.039445311
0.030354656 0.014264969 0.039361384
0.030901328 0.014268093 0.039405633
0.030343682 0.014816007 0.039385572
0.030877728 0.014766023 0.039414342
0.030197311 0.01535178 0.039307728
0.030901959 0.015256072 0.039364796
0.030194331 0.015853131 0.039341461
0.030891178 0.015788354 0.039384056
0.031119121 0.015972277 0.039173663
0.030216442 0.016259549 0.039319485
0.030892186 0.016279567 0.039318066
0.031147189 0.01626212 0.039251585
0.030387022 0.016785935 0.039351866
0.030889854 0.016779372 0.039262474
0.031154566 0.016846584 0.039331801
0.030371331 0.017264962 0.039269935
0.030860286 0.017265281 0.039286796
0.031212797 0.017255317 0.039234444
0.030357834 0.017810509 0.039244935
0.030895418 0.017771516 0.039234914
0.031265859 0.017780878 0.03928569
0.030193062 0.018296998 0.039220937
0.030810948 0.018263767 0.039255451
0.031306524 0.01831005 0.039238885
0.030160718 0.018786445 0.039238047
0.030882386 0.018780377 0.039173409
0.03132144 0.018796576 0.039270669
0.030211657 0.019232228 0.039205112
0.030867394 0.019275429 0.039197013
0.031371877 0.01925654 0.039210159
0.031642821 0.019288741 0.039049905
0.030212803 0.019690854 0.039202694
0.030837962 0.019782763 0.039139166
0.031219495 0.019749602 0.039200108
0.03163081 0.019845972 0.039266396
0.029995207 0.020282157 0.03913771
0.030395782 0.020287741 0.039137144
0.030843351 0.020268835 0.039202545
0.031204566 0.020297946 0.039133877
0.029861886 0.020779509 0.0390887
0.030392302 0.020766061 0.039173681
0.030829189 0.020782294 0.039117917
0.031202953 0.020759705 0.039150879
0.029820215 0.02111052 0.039165173
0.030395437 0.021294748 0.039110743
0.030861882 0.021285024 0.039121911
0.031219708 0.021143479 0.03918615
0.029824704 0.021863258 0.039139967
0.030357301 0.021755772 0.039115082
0.030878633 0.02178135 0.039094713
0.031202361 0.021797849 0.039035223
0.029988108 0.022451475 0.039181981
0.030311977 0.022274382 0.039082691
0.030854343 0.02226861 0.039064523
0.031169573 0.022313349 0.03912149
0.030335777 0.022745926 0.03906497
0.030864239 0.022788543 0.039061166
0.03122676 0.022732325 0.039042696
0.030401368 0.023255432 0.03904191
0.030843314 0.023264199 0.03948291
0.03121081 0.023261856 0.039030485
0.030414494 0.023799224 0.039460402
0.030796198 0.023774084 0.039028395
0.031177346 0.023777746 0.039230701
0.030351697 0.024294304 0.039445173
0.030868161 0.024318099 0.039476547
0.031184936 0.024252329 0.039384108
0.030329099 0.024773264 0.03946846
0.030881397 0.024812927 0.039462481
0.031158548 0.024776021 0.039422706
0.030343454 0.025229335 0.039453015
0.030842103 0.025287319 0.039441347
0.031185284 0.025265679 0.039445892
0.030376067 0.025793668 0.039423443
0.030880444 0.025791606 0.039370246
0.031228203 0.025838889 0.039381765
0.030422311 0.026281243 0.039392591
0.030829322 0.026269954 0.039408829
0.031207409 0.026294347 0.039360147
0.030381162 0.026827347 0.039397553
0.030839607 0.026826488 0.039394714
0.031280786 0.026816037 0.039339054
0.030389341 0.027274843 0.039319724
0.030805435 0.027292073 0.039356451
0.031286962 0.027309937 0.039312698
0.030321892 0.027806019 0.039339092
0.030801516 0.027804535 0.039319564
0.031230424 0.027797731 0.039270718
0.030380186 0.028267268 0.039301686
0.030876134 0.02831577 0.039311182
0.031337634 0.02824604 0.039242975
0.023202535 0.02890823 0.039486386
0.023683537 0.028878925 0.039483164
0.024236295 0.028895253 0.039475184
0.024736583 0.028909551 0.039472241
0.026138987 0.028923901 0.039458461
0.026654659 0.028887663 0.039463181
0.029347319 0.02878307 0.039475158
0.029745825 0.02881423 0.039394185
0.030420475 0.028803511 0.039291408
0.030916411 0.028733883 0.039293237
0.031272586 0.028750869 0.039287068
0.022691818 0.029349664 0.039286014
0.023305649 0.02942607 0.039344557
0.023744058 0.029388545 0.039447784
0.024227623 0.029412225 0.039292172
0.024669066 0.029325515 0.039302412
0.025218995 0.029415801 0.039275162
0.025707098 0.029393375 0.039256021
0.02617888 0.029389527 0.039242186
0.026697937 0.029359434 0.039227486
0.027224641 0.029366402 0.039342616
0.027809151 0.029403497 0.039457873
0.028150477 0.029341115 0.039432928
0.02867387 0.029310752 0.039428726
0.029263459 0.029304303 0.039459974
0.029657301 0.029262802 0.039340168
0.030300312 0.029244846 0.039201003
0.030870611 0.029279206 0.039286055
0.031227008 0.029271431 0.039236344
0.022740155 0.029848406 0.039405059
0.023249453 0.029876232 0.039342832
0.023715289 0.029721634 0.039265994
0.024216222 0.029855778 0.03923519
0.024781168 0.029852228 0.039437681
0.025245635 0.029846366 0.039388336
0.025780138 0.029927887 0.039378382
0.026298335 0.029938405 0.039383497
0.026803803 0.029885177 0.039460726
0.027350081 0.029884348 0.039340407
0.027742999 0.029716728 0.03930844
0.028295364 0.029689636 0.039252423
0.02876924 0.029684011 0.03926545
0.029235519 0.029842475 0.039310079
0.029631078 0.029802136 0.039307382
0.030101761 0.029882364 0.03929355
0.03074171 0.029833701 0.039369456
0.031129749 0.029767407 0.039301634
0.022705778 0.03024707 0.039279357
0.023233786 0.030306291 0.039282918
0.023720453 0.030306974 0.039312374
0.024221543 0.03034148 0.039282732
0.024729654 0.030291602 0.039313167
0.025242485 0.030288342 0.039284013
0.025719061 0.030291975 0.039308198
0.026227057 0.030295745 0.039276518
0.02667788 0.030223895 0.03922385
0.027248207 0.030284729 0.039245721
0.027718239 0.030281365 0.039268591
0.028179303 0.030268108 0.039163817
0.028780058 0.030200645 0.039252266
0.029165544 0.030291511 0.039201375
0.02958566 0.030315317 0.039280333
0.030055478 0.030283719 0.039131224
0.030652171 0.030260518 0.039218344
0.031051736 0.030279573 0.039156519
0.022615464 0.030814664 0.039014459
0.023139689 0.030796688 0.039162498
0.023613729 0.030750988 0.0391813
0.024232149 0.030712688 0.039106503
0.024706118 0.030728549 0.039017603
0.025234465 0.030759299 0.039027035
0.025777383 0.030757656 0.039134528
0.026399435 0.03074399 0.039111231
0.026805893 0.030679841 0.039089583
0.027242493 0.030671427 0.039055377
0.027846254 0.030597955 0.039057635
0.030564625 0.030779433 0.039188396
0.030531438 0.031279124 0.039247304
0.030351585 0.031650376 0.039470229
0.030540565 0.03173903 0.039190106
0.022970032 -0.030184004 0.039543882
0.023446962 -0.030096143 0.039587282
0.023890484 -0.030048175 0.039548814
0.024177216 -0.030175073 0.039536357
0.024769187 -0.030063802 0.039517816
0.025977951 -0.030020272 0.03954215
0.026314516 -0.030081116 0.039566383
0.028267123 -0.030020814 0.039532896
0.022952545 -0.029738441 0.039768282
0.023455344 -0.029735282 0.039727323
0.023955557 -0.029718775 0.039713979
0.024409121 -0.029743379 0.039701913
0.02495493 -0.029735118 0.039692283
0.025400674 -0.029727381 0.039657526
0.025880111 -0.02973667 0.039627686
0.026368525 -0.029678686 0.039674066
0.026854193 -0.029632984 0.039698195
0.027337547 -0.029633511 0.039615933
0.027915005 -0.029730177 0.03967531
0.028412797 -0.029705128 0.039722417
0.028830087 -0.029681763 0.039623432
0.022756971 -0.029152853 0.039715488
0.023243511 -0.029172329 0.039723352
0.023835793 -0.029242378 0.039676968
0.024356887 -0.02921883 0.039628811
0.024936248 -0.029289912 0.039709236
0.025376434 -0.029260375 0.039763592
0.025763452 -0.029138897 0.039832503
0.026261693 -0.029170509 0.039900571
0.026775494 -0.029283661 0.039835811
0.027273411 -0.029148981 0.039712761
0.027843177 -0.029195257 0.039671406
0.028382324 -0.029213313 0.039637405
0.028902503 -0.029256485 0.039726455
0.029161759 -0.029417196 0.039527185
0.030485842 -0.029217383 0.039713264
0.030871779 -0.029201899 0.039680731
0.022889517 -0.028787196 0.039822761
0.023462489 -0.028856609 0.039776579
0.023739703 -0.028744515 0.039760835
0.024271933 -0.028716816 0.039741252
0.024753744 -0.028718144 0.039775338
0.025278689 -0.028726565 0.03978223
0.02571743 -0.028818004 0.039519519
0.026280796 -0.028768685 0.039772525
0.026792459 -0.028805979 0.039743915
0.027287522 -0.028782675 0.039803412
0.027680725 -0.028828273 0.039830904
0.028265269 -0.028778022 0.039829105
0.0287768 -0.028751947 0.03982031
0.029225778 -0.028627204 0.039751042
0.02974204 -0.028716566 0.039612632
0.03021758 -0.028660597 0.039660282
0.030717192 -0.028760079 0.03968272
0.022737067 -0.028339017 0.039813671
0.023201488 -0.028241254 0.039699242
0.023660762 -0.028337304 0.039703965
0.024198581 -0.028335543 0.039749652
0.024658618 -0.028316306 0.039772432
0.025215544 -0.028307907 0.039737199
0.025669353 -0.028203391 0.039831959
0.026149973 -0.02821823 0.039853185
0.028740868 -0.028208932 0.039803777
0.02919657 -0.028322326 0.039776515
0.029660517 -0.028408986 0.039805092
0.030402021 -0.028349658 0.039727241
0.030956086 -0.028233998 0.039677553
0.030480057 -0.02777892 0.039698437
0.03092514 -0.027753821 0.039676499
0.031276416 -0.027714003 0.039827239
0.030718558 -0.027257416 0.03963425
0.031252719 -0.02726233 0.039641891
0.030712478 -0.026760763 0.039636686
0.031280581 -0.026713405 0.039641328
0.030438688 -0.026244234 0.039589137
0.030933529 -0.026300559 0.039616168
0.031274531 -0.026229765 0.039512791
0.030421365 -0.025754167 0.039563466
0.030927524 -0.02578661 0.039617218
0.031306922 -0.02576975 0.039647862
0.030235687 -0.025165612 0.039706398
0.030925512 -0.025236489 0.039627671
0.030276198 -0.024715774 0.039558664
0.03091868 -0.024782231 0.039570577
0.031229597 -0.024624184 0.039680388
0.030437853 -0.024286613 0.039525643
0.030958608 -0.02420542 0.039528526
0.031196501 -0.02421676 0.039882451
0.029931244 -0.023713185 0.039743885
0.030370314 -0.023759849 0.039501727
0.030958164 -0.023739925 0.039998859
0.031301081 -0.023785897 0.039757721
0.029935103 -0.023231944 0.03974779
0.030407228 -0.023236332 0.039996378
0.030940119 -0.023220643 0.039990827
0.031263836 -0.023210479 0.039764322
0.029899366 -0.02279504 0.039910063
0.030409396 -0.022726268 0.0399452
0.030938331 -0.022741828 0.039995801
0.031261869 -0.022651099 0.039974861
0.029895049 -0.022295564 0.039727114
0.03049181 -0.02227129 0.039925754
0.030842006 -0.022233319 0.039741285
0.029826023 -0.021764969 0.039931789
0.030440487 -0.021719309 0.039935783
0.030888986 -0.021719212 0.039948601
0.029963916 -0.021185519 0.039920036
0.030292502 -0.021210993 0.039682668
0.030911474 -0.021249285 0.039948899
0.030239794 -0.020825922 0.039958872
0.030716293 -0.020799603 0.039732464
0.030265979 -0.020236192 0.039904121
0.030717015 -0.020237615 0.039673794
0.030211195 -0.019711718 0.039929822
0.030812815 -0.019743308 0.039812267
0.030209936 -0.019265518 0.039736871
0.030870438 -0.01921114 0.039851699
0.031216357 -0.019018322 0.039914858
0.0303897 -0.018733898 0.039815754
0.030855924 -0.01868844 0.039814606
0.031188812 -0.018737935 0.039726838
0.029931597 -0.018133979 0.039849658
0.030374518 -0.018248035 0.039802052
0.030883096 -0.018229831 0.03980311
0.031227104 -0.01818227 0.039856676
0.029995333 -0.017604489 0.039721042
0.030407518 -0.017741203 0.039768759
0.030857768 -0.017719612 0.039768372
0.031226173 -0.017774181 0.039780173
0.03027045 -0.017239414 0.039779559
0.030943681 -0.017247768 0.039718505
0.031225536 -0.017253045 0.039713405
0.030256454 -0.016722178 0.039746881
0.030930407 -0.016757015 0.039712079
0.031241348 -0.016725397 0.039739944
0.030242801 -0.016144535 0.039648645
0.030882392 -0.016241409 0.039693385
0.031247869 -0.016215904 0.039677106
0.030256085 -0.015768232 0.039681658
0.030930653 -0.015769564 0.039646879
0.031259652 -0.015767317 0.039700571
0.030399792 -0.015206471 0.039638564
0.030933095 -0.015211822 0.039628483
0.031232502 -0.015359936 0.039662458
0.030372694 -0.014750276 0.039619781
0.030951118 -0.014718963 0.039640784
0.030261416 -0.01432691 0.0396659
0.030928928 -0.014247071 0.039608549
0.03119484 -0.014189173 0.039668351
0.030257665 -0.013715014 0.039609082
0.030908816 -0.013732977 0.03965497
0.031235922 -0.013709632 0.03962687
0.030247364 -0.013244917 0.039700903
0.030922312 -0.013228313 0.03958093
0.031222656 -0.013093906 0.039562166
0.030244477 -0.012767565 0.03957976
0.030897532 -0.01273935 0.039544925
0.031237775 -0.01278647 0.039623801
0.030389033 -0.012215243 0.039545409
0.030922376 -0.012216873 0.039553639
0.031236714 -0.012331663 0.039595891
0.030411581 -0.011746954 0.039747402
0.030372422 -0.011197922 0.039966345
0.030898988 -0.011215249 0.03996617
0.031214673 -0.011207279 0.039987646
0.030367725 -0.01073801 0.039728403
0.030846521 -0.010704216 0.039931614
0.031218123 -0.010686588 0.039967068
0.030350573 -0.010235279 0.039926253
0.03093484 -0.01022305 0.039941169
0.031235952 -0.010187682 0.039973568
0.030348158 -0.0097268969 0.039912626
0.030927323 -0.0097261136 0.039904527
0.031230304 -0.009666115 0.039843544
0.030396124 -0.0092427973 0.039927807
0.030942887 -0.0091783879 0.039878793
0.031290047 -0.0091554131 0.039872866
0.030356159 -0.008725795 0.039866891
0.030910747 -0.0086927805 0.039888617
0.031357124 -0.0087160971 0.039869182
0.030370809 -0.0082264356 0.039837308
0.030931834 -0.0082057081 0.039822176
0.031448223 -0.008319228 0.039811485
0.030365838 -0.0077230344 0.039834108
0.030897122 -0.0077122273 0.039834104
0.031252377 -0.0077001592 0.039796717
0.030387247 -0.0072283093 0.039809741
0.030926049 -0.00721398 0.039781846
0.031270854 -0.007233982 0.039903887
0.030446276 -0.0067616706 0.039787419
0.030915771 -0.0067394688 0.039817318
0.030441493 -0.0062197428 0.039762646
0.030897107 -0.006248014 0.039753787
0.031293646 -0.0061796093 0.03974694
0.030431708 -0.0056594741 0.039766759
0.030912165 -0.0057735369 0.039743934
0.031242389 -0.0057305293 0.039735954
0.030361617 -0.0051610023 0.039744288
0.030936945 -0.0052370969 0.039711658
0.031249205 -0.0051766457 0.039741468
0.030252259 -0.004676986 0.039643392
0.030874513 -0.0047639972 0.039725661
0.031252392 -0.0047240471 0.039666619
0.030335132 -0.0042154216 0.039675768
0.030896772 -0.0042156456 0.03971903
0.031251427 -0.0042758435 0.039673209
0.030333055 -0.0037068285 0.039685756
0.030893527 -0.0037516169 0.039649114
0.031256132 -0.0037637725 0.039665882
0.030234467 -0.0032881186 0.039656214
0.030888744 -0.0032520336 0.039623722
0.031247713 -0.0031466202 0.039676581
0.030230172 -0.0027601435 0.039606791
0.030903962 -0.0027264075 0.039614204
0.031332906 -0.0026822989 0.039572712
0.030208932 -0.0021378389 0.039716396
0.030896887 -0.0022089265 0.039565496
0.031267993 -0.0022439077 0.03961543
0.030369667 -0.0017282828 0.039612025
0.030904241 -0.0017170131 0.039579581
0.031302668 -0.001702161 0.039567161
0.030445389 -0.001249484 0.039551467
0.030870739 -0.0012037037 0.039558578
0.031269345 -0.001276732 0.039574414
0.030370466 -0.00076547475 0.039548334
0.030943017 -0.00074034603 0.039514057
0.031332172 -0.0007566812 0.039530095
0.0303833 -0.00023370609 0.039512318
0.030937059 -0.00022197701 0.039524816
0.031288706 -0.00022482662 0.039525773
0.03006009 0.00029801228 0.039947879
0.031242443 0.00027126737 0.039698962
0.029997151 0.00076317182 0.03996674
0.031253476 0.00076928549 0.039895326
0.030183658 0.0011850834 0.039863274
0.03093829 0.0012734602 0.039974649
0.030387782 0.0018155954 0.039950784
0.030907236 0.0018013276 0.039952327
0.030424397 0.0022979125 0.039927021
0.03090585 0.002252151 0.039918657
0.031241596 0.0024038958 0.039904162
0.030365556 0.0028359378 0.039858796
0.030926302 0.0027556063 0.039893053
0.030173952 0.0033752618 0.039803326
0.030906895 0.0032549894 0.039885059
0.031257316 0.0030825452 0.039963029
0.029960183 0.0038087766 0.039895773
0.030348226 0.0037753333 0.039844301
0.030933753 0.0038002336 0.03981648
0.031241689 0.0038541602 0.039977696
0.029886598 0.0042888853 0.0398417
0.030373283 0.0042925579 0.039794143
0.030911257 0.0043067364 0.039835151
0.031250186 0.0042512883 0.039805666
0.029956102 0.0047507565 0.039773125
0.030328009 0.0047657629 0.039803237
0.030920658 0.0047943396 0.039806426
0.031333432 0.0047954819 0.039805591
0.030241147 0.0052926606 0.039789934
0.030890658 0.0053087273 0.039775252
0.031368099 0.0052959821 0.039780278
0.030216802 0.0057739923 0.039776251
0.030895159 0.0057704863 0.039781112
0.031360395 0.0057681012 0.039774321
0.030186441 0.0062640295 0.03983742
0.030913914 0.0062752329 0.039757118
0.031299345 0.006307275 0.039761893
0.030244514 0.0067972578 0.039712422
0.030879259 0.0068127885 0.039726693
0.031237533 0.006774188 0.039732341
0.030234199 0.0073166792 0.039685443
0.030945618 0.0072990367 0.039707854
0.031265501 0.0072667301 0.039666377
0.03019008 0.0077297115 0.039642219
0.030899141 0.0077662752 0.039656784
0.031257488 0.0077761733 0.039738104
0.030347064 0.0082620345 0.039652515
0.030915156 0.0082734535 0.039666273
0.031284675 0.0082719084 0.039679565
0.029999217 0.0087918835 0.03963314
0.030251153 0.0086380662 0.039636694
0.030912947 0.0087950435 0.039611816
0.031264607 0.0087812794 0.039638624
0.030421112 0.0092799067 0.039599571
0.030886836 0.0092754532 0.039626352
0.031284455 0.0092662927 0.039606169
0.030370051 0.0097776428 0.039551158
0.030916777 0.009790563 0.039594613
0.031295322 0.0097775068 0.039640956
0.03033638 0.010289267 0.039572116
0.030898957 0.010256166 0.039560404
0.031244712 0.010234995 0.039564632
0.030324897 0.010786138 0.039562874
0.030900553 0.010785094 0.039578367
0.031268731 0.010809939 0.039584614
0.03040871 0.011247689 0.039532695
0.030843509 0.01129823 0.039992899
0.031284593 0.011238946 0.039569281
0.030418867 0.011814114 0.039542723
0.030877151 0.011783559 0.039761245
0.031190416 0.011804168 0.039502144
0.030891042 0.012302322 0.039969731
0.031232834 0.012233791 0.039610162
0.030423515 0.012819499 0.039975952
0.03090262 0.012831094 0.039935879
0.030431382 0.013313156 0.039936595
0.030870102 0.013303632 0.03993801
0.030381221 0.013773184 0.039913807
0.030882915 0.013824725 0.039916243
0.030360356 0.014311358 0.039885722
0.030880148 0.014301333 0.039889861
0.030348301 0.014791306 0.039859869
0.030889204 0.014794047 0.039880414
0.030352123 0.015300917 0.039864883
0.030876331 0.015288374 0.039873414
0.030214434 0.015714891 0.039779793
0.030886382 0.015822301 0.039853569
0.030231223 0.01627202 0.039818224
0.030899666 0.01630434 0.039793484
0.031208975 0.016455829 0.039587289
0.030333687 0.016801186 0.039812468
0.030894836 0.016827889 0.039766636
0.031219453 0.016755555 0.039833229
0.030338997 0.017308103 0.039797448
0.030879281 0.017318206 0.039764889
0.03121143 0.017352901 0.039803963
0.030312782 0.01780967 0.039767768
0.030871101 0.017799817 0.039694957
0.03123159 0.017824268 0.039784022
0.030228652 0.018255142 0.039755933
0.030837886 0.018295404 0.039758116
0.031218026 0.018274769 0.039754111
0.030186202 0.018781597 0.039714377
0.030808156 0.018842135 0.039672185
0.031253353 0.018814322 0.039703414
0.030214056 0.019285196 0.03972245
0.030861545 0.01933882 0.039688926
0.031284384 0.019304834 0.039639968
0.030199176 0.0197355 0.039665177
0.030831464 0.019820591 0.039637361
0.031278778 0.019835617 0.039635889
0.029949894 0.020306988 0.039711006
0.030422453 0.020254524 0.039647199
0.030795841 0.02032391 0.039689049
0.031233517 0.020255629 0.039625898
0.029840367 0.020784834 0.039546609
0.030371223 0.020810425 0.039638147
0.03087743 0.020805776 0.039619237
0.031194031 0.020741547 0.039611042
0.029742556 0.021252651 0.039654147
0.030392917 0.021293869 0.039602809
0.030888107 0.021291992 0.03960992
0.031250052 0.021250293 0.039593749
0.029753897 0.021663098 0.039691631
0.030362485 0.021842603 0.039599188
0.030867761 0.021801632 0.039578181
0.031251203 0.021817349 0.039589643
0.029898917 0.022275032 0.039583944
0.03033415 0.022301773 0.039556976
0.030853638 0.022295063 0.03954329
0.031285342 0.022271771 0.039643981
0.029985638 0.02266812 0.039541017
0.030331809 0.022823626 0.039562803
0.030904347 0.022769509 0.039530933
0.031233495 0.022821905 0.039576586
0.030325864 0.023293005 0.03952308
0.031158349 0.023315784 0.039533116
0.030831194 0.023774028 0.039549276
0.030880503 0.024282854 0.039987024
0.030310448 0.024817841 0.039994523
0.030897886 0.024794446 0.039977193
0.030211736 0.025260098 0.039734498
0.030858766 0.025292475 0.039947547
0.030365165 0.025822878 0.039921321
0.030858334 0.025823331 0.039940052
0.031137757 0.025830975 0.039913617
0.030396027 0.026349254 0.039905261
0.030859459 0.02628639 0.039907962
0.031197699 0.026288571 0.039813086
0.030397866 0.026801486 0.039850306
0.030833006 0.026824633 0.039887488
0.031183394 0.026782854 0.039885599
0.030353095 0.027261423 0.039833203
0.030809719 0.02730779 0.039861266
0.031147916 0.027248822 0.039816279
0.026220411 0.027913986 0.039992463
0.026720671 0.027854344 0.039927855
0.030334629 0.027812377 0.039831318
0.03082791 0.027824145 0.039866064
0.031118102 0.02787073 0.039729517
0.02267839 0.02837061 0.039992414
0.023170853 0.02837473 0.03994941
0.023644919 0.028390445 0.039970331
0.024124423 0.028388239 0.039992549
0.024685599 0.028360765 0.03993731
0.02564265 0.028410034 0.039952733
0.026203942 0.028410943 0.039802261
0.026663376 0.02838086 0.039775312
0.027176522 0.028345246 0.039962567
0.027676852 0.028343678 0.039978143
0.029288083 0.02839135 0.039564759
0.029670319 0.028443135 0.03953097
0.030212237 0.028200164 0.039737172
0.030874537 0.0282932 0.039808504
0.03116804 0.028310744 0.039744269
0.022777958 0.028901597 0.03969169
0.023203557 0.028761536 0.039844178
0.023720887 0.028657928 0.039746292
0.024119005 0.028654916 0.0397324
0.024747133 0.028722327 0.039748378
0.025184976 0.028876562 0.039718419
0.025643457 0.028837841 0.039711297
0.026138896 0.028787885 0.039798591
0.026702436 0.028789442 0.039802868
0.027144291 0.028874811 0.039569199
0.027703911 0.028838141 0.039721213
0.028258508 0.028833108 0.039866328
0.028799549 0.028760752 0.039746035
0.029165041 0.028876623 0.039747946
0.029669337 0.028839061 0.039958678
0.030325893 0.028733714 0.039816141
0.030829212 0.028804841 0.039760102
0.031189177 0.02879633 0.039747398
0.022878662 0.029302811 0.039800011
0.023332149 0.029335156 0.039795756
0.023864832 0.029331328 0.039826855
0.024408491 0.029195048 0.039859463
0.024751116 0.02932586 0.039849844
0.025318939 0.029293943 0.039811499
0.025825473 0.029330624 0.039890308
0.026350504 0.029381324 0.03984502
0.026764326 0.029397573 0.039857574
0.027302071 0.029249469 0.039872106
0.027812367 0.029242063 0.039912973
0.028217787 0.02925027 0.03979212
0.028764416 0.029257094 0.039684728
0.029148042 0.029199632 0.039685637
0.029661965 0.029309407 0.03969007
0.030233035 0.029360892 0.03976405
0.030741371 0.029299285 0.039821237
0.03119589 0.02916263 0.039788585
0.022743072 0.029735679 0.039709065
0.023210943 0.029768301 0.039756786
0.023789665 0.029745389 0.039790198
0.024277404 0.029734023 0.039768215
0.024780549 0.029766336 0.039711684
0.025301002 0.029761322 0.039677575
0.025767716 0.029786786 0.039709721
0.026250919 0.029807547 0.039676171
0.026803866 0.029700685 0.039670274
0.027252555 0.029785627 0.039575018
0.027803451 0.029747132 0.039681245
0.028241001 0.029802416 0.039655916
0.02877333 0.029793616 0.039576583
0.030415056 0.029798368 0.03977168
0.030679842 0.029659588 0.039643638
0.031066665 0.029591227 0.039665516
0.023345137 0.030115932 0.039701387
0.026043249 0.030175194 0.039793961
0.02779486 0.030078351 0.039584491
0.028184056 0.030148769 0.03950214
0.028830163 0.030203342 0.039525472
0.029349338 0.030298728 0.039511696
0.030389784 0.030288452 0.039692201
0.030295657 0.030809231 0.039702658
0.030320456 0.031280074 0.039593745
0.022964802 -0.029571611 0.04004696
0.023431873 -0.029539675 0.040015716
0.023911575 -0.029554481 0.040033266
0.024341453 -0.029547239 0.040025067
0.024686083 -0.02954118 0.040019628
0.028338354 -0.029510278 0.040002391
0.022928081 -0.029162794 0.040211871
0.023474485 -0.029203115 0.04016288
0.02396903 -0.029195268 0.040220898
0.024417095 -0.029187514 0.040186182
0.024923276 -0.02921555 0.040184885
0.025389984 -0.029127955 0.040188242
0.025940375 -0.029121328 0.040101573
0.02640051 -0.029197402 0.040090654
0.026843511 -0.029173862 0.040071826
0.027368883 -0.029150607 0.040052231
0.027969526 -0.02911506 0.040134091
0.028415442 -0.029189274 0.040066529
0.028968848 -0.029072154 0.040072169
0.030733891 -0.029082347 0.040145509
0.022838708 -0.028713495 0.040119473
0.023321182 -0.02873845 0.040121071
0.023935009 -0.028767997 0.040193226
0.024398604 -0.028734533 0.040228359
0.024934005 -0.028745826 0.040167775
0.025347933 -0.028756982 0.040240113
0.025850216 -0.028716285 0.040225647
0.026335552 -0.028686568 0.040200852
0.026804911 -0.028669752 0.040249389
0.027300131 -0.028661745 0.040138181
0.02778795 -0.028652675 0.040149268
0.028425716 -0.028679978 0.040210787
0.028904177 -0.028729301 0.040174212
0.029190235 -0.028569557 0.040475778
0.030732442 -0.028783621 0.040180467
0.022788502 -0.0281728 0.040200975
0.023265639 -0.028153537 0.040214151
0.023841524 -0.028232343 0.040125877
0.024316646 -0.028225923 0.040131625
0.024738202 -0.028154761 0.040204499
0.025301097 -0.028213674 0.040246103
0.025833502 -0.028287601 0.040409252
0.026310615 -0.028256707 0.040369354
0.026745215 -0.028168924 0.040257599
0.027250692 -0.028152118 0.040261675
0.027782155 -0.028196543 0.040271517
0.028318193 -0.028239211 0.040227983
0.02880358 -0.028162774 0.040217895
0.029193303 -0.028126877 0.040096104
0.029651562 -0.028088912 0.040097672
0.030203879 -0.028124306 0.040052194
0.030767579 -0.028185971 0.040175445
0.022759235 -0.027792821 0.040275715
0.023169965 -0.027683998 0.040066939
0.023700731 -0.027806571 0.040313005
0.024205046 -0.027809367 0.040328175
0.024748886 -0.027694162 0.040346056
0.025159951 -0.027727602 0.040193401
0.025690939 -0.027717169 0.040161688
0.026200041 -0.027628837 0.040210441
0.026697759 -0.027700275 0.040226314
0.027246401 -0.027805232 0.040290304
0.027732065 -0.02781114 0.040189311
0.028215 -0.027798507 0.040276788
0.028711557 -0.027740628 0.040336829
0.029201683 -0.027693182 0.040284976
0.029688131 -0.027768441 0.040230196
0.030224454 -0.027837282 0.040325005
0.030741865 -0.0277352 0.040142596
0.031180745 -0.027808275 0.040342413
0.025662735 -0.027147807 0.040498469
0.028180109 -0.027206853 0.040492356
0.030748874 -0.027203646 0.040178329
0.031271629 -0.027255155 0.040195964
0.030734919 -0.026724041 0.040128063
0.031303428 -0.026722863 0.040123582
0.030699676 -0.026220474 0.040147014
0.031303782 -0.026224788 0.040105164
0.030389562 -0.025730532 0.040032718
0.030931201 -0.025780912 0.040085241
0.031322807 -0.025776492 0.040127806
0.030406743 -0.025242481 0.040061414
0.030953903 -0.02523144 0.040121328
0.031272374 -0.025385724 0.040019069
0.030257866 -0.024721427 0.040047329
0.030938437 -0.024750561 0.040041585
0.029946294 -0.024194967 0.040000256
0.030386344 -0.024261726 0.040033869
0.030920282 -0.024203254 0.040057272
0.031254914 -0.024116954 0.040287137
0.030429706 -0.023732387 0.040248886
0.030241273 -0.023183731 0.0404732
0.030921364 -0.023210559 0.04047567
0.031313468 -0.023232069 0.04044899
0.029999781 -0.022725044 0.040443271
0.030435709 -0.022734582 0.040423393
0.03094247 -0.022732245 0.040468298
0.03135065 -0.022719041 0.040462624
0.029897509 -0.022275923 0.040388521
0.030415127 -0.022165477 0.040454749
0.030947808 -0.022210624 0.040450756
0.03141534 -0.022250269 0.040258743
0.029912889 -0.021698359 0.040428847
0.030452717 -0.021714963 0.04044475
0.030970424 -0.021710798 0.040406574
0.03144275 -0.021750215 0.040309455
0.029914854 -0.021216627 0.040440127
0.030360941 -0.02120561 0.040398758
0.030909415 -0.021205766 0.040407851
0.031355105 -0.021198133 0.040395103
0.0302171 -0.020732056 0.040355325
0.030919123 -0.020721948 0.040356088
0.031312086 -0.020747166 0.040478081
0.030262539 -0.020218678 0.040315703
0.030872449 -0.020214077 0.04036751
0.030250965 -0.019715548 0.040325232
0.030862493 -0.019713111 0.040314391
0.030238777 -0.019214001 0.040325671
0.030939221 -0.019234678 0.040293366
0.029887812 -0.018773332 0.040286459
0.030405095 -0.018716078 0.040298976
0.030901771 -0.018712999 0.040311981
0.031170644 -0.018530685 0.040108316
0.029900573 -0.018355962 0.04014666
0.03041897 -0.018209256 0.040296171
0.0308863 -0.018193584 0.04029065
0.031184623 -0.018049911 0.040172175
0.030203512 -0.017836142 0.040302694
0.030955821 -0.017732464 0.040250339
0.031243231 -0.017575249 0.040148944
0.030261867 -0.017260069 0.040215705
0.030878125 -0.017185451 0.040209305
0.031195732 -0.017158328 0.04018949
0.030396217 -0.016722437 0.040221285
0.030848347 -0.016711289 0.040250625
0.031220492 -0.016732814 0.040232923
0.030360129 -0.016237438 0.040156782
0.030901235 -0.016201394 0.040170528
0.031211149 -0.016164295 0.040205352
0.030371103 -0.015723614 0.040159941
0.030925045 -0.015718574 0.040125892
0.031234358 -0.015639614 0.040161032
0.030413104 -0.0152027 0.040169343
0.030926235 -0.015213328 0.040126942
0.031281419 -0.015217382 0.040154882
0.030270703 -0.014749659 0.040194321
0.030908752 -0.014739115 0.040126488
0.031291172 -0.01477536 0.040085625
0.030303737 -0.014228217 0.040104002
0.030922525 -0.014222639 0.040120158
0.031277746 -0.014153605 0.040056806
0.030238803 -0.013752008 0.040097326
0.030910902 -0.013739807 0.040116608
0.031365257 -0.013687702 0.040095963
0.030336265 -0.013220479 0.040074103
0.030932434 -0.013214813 0.040015757
0.031377587 -0.013182859 0.04009252
0.030248905 -0.012726683 0.040138766
0.030928314 -0.012719077 0.040057078
0.031349804 -0.012662267 0.040035646
0.030388329 -0.012215015 0.040041368
0.030930802 -0.012224421 0.040008169
0.031333547 -0.012200266 0.040017813
0.030923549 -0.01173169 0.040240452
0.031306282 -0.011740956 0.040227905
0.03038742 -0.011211875 0.040483817
0.030937079 -0.01118017 0.040464174
0.030352049 -0.010700372 0.040456742
0.031229511 -0.010646825 0.040452685
0.030322695 -0.010197708 0.040421087
0.030949231 -0.010174967 0.040442601
0.031278115 -0.010170643 0.040444974
0.030380502 -0.0096822055 0.040416699
0.030927274 -0.0097243637 0.040416546
0.031211656 -0.0097028241 0.040432341
0.030415384 -0.0092171719 0.040420957
0.030948397 -0.0092252269 0.040420189
0.031268869 -0.0092694741 0.040363204
0.030372277 -0.0086902659 0.040362619
0.030928679 -0.0087010581 0.040373679
0.03130205 -0.008671117 0.040414941
0.03038333 -0.0082198102 0.040351197
0.030927913 -0.0082094837 0.040331498
0.031361192 -0.0082269674 0.040369794
0.03037969 -0.0077101924 0.040342364
0.030904409 -0.0077558029 0.040408097
0.031163737 -0.0076603703 0.040329613
0.030383458 -0.0071945349 0.040311184
0.030928474 -0.007183366 0.04030139
0.031141721 -0.0071375463 0.040344868
0.030424155 -0.0067182225 0.040300243
0.03090298 -0.00665012 0.040279992
0.031222921 -0.0067182365 0.040308449
0.030435145 -0.006183512 0.040268742
0.030924743 -0.0061937086 0.040297866
0.03124975 -0.0061563952 0.040271387
0.030445466 -0.0056530982 0.040252019
0.03087225 -0.0056934874 0.040250186
0.031220879 -0.0057087876 0.040247772
0.030402504 -0.0051716701 0.040258322
0.030887147 -0.005177469 0.040230066
0.031210771 -0.0051849619 0.040218968
0.030369736 -0.0047302693 0.040207494
0.030909684 -0.004655316 0.040216088
0.031220468 -0.0047474969 0.040255688
0.03035298 -0.0042273016 0.040172707
0.030888975 -0.0041909441 0.040171459
0.031245073 -0.0041609528 0.040199727
0.030383352 -0.0037201787 0.040179607
0.030867087 -0.003697247 0.040154286
0.031238038 -0.0036763556 0.040220186
0.030372459 -0.0031946825 0.040157527
0.030859705 -0.0031948271 0.040145636
0.031235971 -0.0031976595 0.040098693
0.030189356 -0.0026947854 0.040238108
0.030933406 -0.0027077193 0.040162269
0.031241124 -0.0027590017 0.040154655
0.030384187 -0.0021829961 0.04011368
0.030894469 -0.0021821295 0.040096782
0.031247593 -0.0022262647 0.040110476
0.030372716 -0.0016958963 0.040069055
0.030911576 -0.0017373262 0.040080294
0.03122909 -0.001720896 0.040102035
0.03039632 -0.0011889047 0.040102825
0.030871604 -0.00118087 0.040059175
0.031231802 -0.0011777321 0.040056255
0.030325085 -0.00069514103 0.040027849
0.030924205 -0.00070696813 0.040080354
0.031239551 -0.00064216717 0.040237166
0.030346408 -0.00016906112 0.040241167
0.030920051 -0.00020360015 0.040008929
0.031231191 -0.00028174161 0.040066808
0.030213432 0.00028890313 0.040234908
0.030886278 0.000298033 0.040261373
0.029944461 0.00080009038 0.040490787
0.030351005 0.00078890775 0.040229701
0.030901896 0.00081401644 0.040240005
0.030408431 0.0013019128 0.040442985
0.030899547 0.0013358744 0.040445857
0.031223994 0.0010795747 0.040446848
0.030239983 0.0016905508 0.040477701
0.030922877 0.0017768554 0.040415518
0.030397549 0.0023115268 0.040428218
0.030908551 0.0022988429 0.040411793
0.03128868 0.0023031982 0.040417142
0.030400159 0.0028265389 0.040337019
0.030947804 0.0028357224 0.040376529
0.031273879 0.0028237849 0.040228605
0.030361269 0.0033035821 0.040373228
0.030887317 0.0033005378 0.040384345
0.031257201 0.003306258 0.040300496
0.029971663 0.0038183008 0.040353499
0.030335277 0.0038141792 0.040347565
0.030909885 0.0037956294 0.040295854
0.031270962 0.0038122006 0.040383331
0.02994651 0.004311719 0.040266588
0.030346245 0.0042845514 0.040323116
0.030913036 0.0042777895 0.040334772
0.031245988 0.0043206988 0.04028989
0.029971465 0.0048053148 0.040279321
0.03038083 0.0048400443 0.040282853
0.030895939 0.0048415968 0.040307119
0.031288672 0.0047722859 0.040338762
0.029989317 0.0053172735 0.040309072
0.030353088 0.0053332839 0.040294569
0.03091922 0.0052887686 0.040250514
0.031296916 0.0052979114 0.040246341
0.030200632 0.0058112396 0.040275544
0.030941019 0.0058558495 0.04023549
0.031303033 0.0058446415 0.04028672
0.030205779 0.0063261823 0.040228359
0.030875344 0.0063215098 0.040264338
0.031277783 0.0063264724 0.040271886
0.030226536 0.0067877132 0.040234111
0.030919053 0.0068017645 0.04021642
0.031242579 0.0068318145 0.04021965
0.030244185 0.0072929887 0.040208578
0.030882601 0.007310363 0.040201452
0.031236785 0.0072809979 0.04016253
0.030236278 0.0077697467 0.040125735
0.030868255 0.0078224102 0.040152501
0.031237543 0.0078206621 0.040166017
0.030354794 0.0083040483 0.040164225
0.03086221 0.0083534922 0.040168852
0.031237023 0.0082097175 0.040214784
0.030242912 0.0087925326 0.040115491
0.030903596 0.0088166585 0.040120907
0.031260859 0.0087808119 0.040101439
0.030194826 0.0092626177 0.040152509
0.030845989 0.0092794001 0.040095042
0.031247538 0.0093233977 0.040111706
0.030413911 0.0098178489 0.040059306
0.030878212 0.0098357601 0.040084504
0.031263664 0.009782467 0.040113088
0.030380726 0.010290059 0.040062457
0.030869193 0.01032096 0.040058985
0.03124536 0.010306451 0.040046535
0.030328393 0.010792411 0.04004287
0.030862233 0.010798974 0.040043887
0.031295124 0.010837431 0.040054925
0.030236533 0.011306318 0.040088534
0.031306159 0.011293591 0.040023502
0.030436244 0.011808894 0.040003892
0.031314902 0.011801253 0.040040314
0.030388203 0.012296071 0.040253989
0.03138414 0.012301842 0.040254682
0.030382752 0.01283657 0.040494379
0.030878 0.012816448 0.040458623
0.031363811 0.01278548 0.040260151
0.030377867 0.013338583 0.040466294
0.030852307 0.013308863 0.0404642
0.031239253 0.013295006 0.040225282
0.030362517 0.013835061 0.040406533
0.030866658 0.013832822 0.040451717
0.031185307 0.013793143 0.040439583
0.030338829 0.01431601 0.040414296
0.030903589 0.014311089 0.040429637
0.030315761 0.014834647 0.040398858
0.03087157 0.014850225 0.04037229
0.031293429 0.014822217 0.040178269
0.030348554 0.015343925 0.040364824
0.030917337 0.015309565 0.040359888
0.03132252 0.015174608 0.040438779
0.030320583 0.01583082 0.040329352
0.03088228 0.015850414 0.040352173
0.030209526 0.016413402 0.040224735
0.030908758 0.016318506 0.040348396
0.031102423 0.016450647 0.040144455
0.030361842 0.016825549 0.040300325
0.030884728 0.016829459 0.040300906
0.031193649 0.016831763 0.040218167
0.030348904 0.017309269 0.040283065
0.030862626 0.017288402 0.040294979
0.031161914 0.017358344 0.040247191
0.03033388 0.017805453 0.040307552
0.030875292 0.017835762 0.040274642
0.031171709 0.017763374 0.040188879
0.030204764 0.018371422 0.040265851
0.030883363 0.018337069 0.04025282
0.031201892 0.018353261 0.040209059
0.030312449 0.018835004 0.040211
0.030819951 0.018860113 0.040193912
0.031176317 0.018799715 0.040258333
0.029987857 0.019027987 0.040167108
0.030199204 0.019368503 0.040178988
0.030799188 0.019330814 0.040246282
0.031184997 0.01932846 0.04016063
0.030202685 0.019825999 0.040202335
0.030808304 0.019850617 0.040159695
0.0311892 0.019833066 0.040164508
0.029927637 0.020309817 0.040186215
0.030355588 0.020312252 0.040172864
0.030838758 0.020329531 0.040171638
0.031227037 0.020316957 0.040138703
0.029796682 0.020805253 0.040113065
0.030391349 0.020795075 0.040128343
0.030838406 0.020803861 0.040166665
0.031220336 0.020839086 0.040119383
0.029734733 0.02129114 0.040145125
0.03040104 0.021317849 0.040132985
0.030864716 0.021319695 0.04009708
0.031194238 0.021366794 0.040041551
0.029737312 0.021840485 0.040162627
0.030411171 0.021843085 0.040108833
0.03084914 0.021815408 0.040072843
0.031206066 0.021821037 0.040105045
0.02990187 0.02238233 0.040054459
0.03037335 0.022315832 0.040093444
0.030873626 0.022279644 0.040094305
0.03122649 0.022346599 0.040077288
0.029982524 0.022763319 0.040064272
0.030358266 0.022786848 0.040053826
0.030887943 0.022844249 0.040058833
0.031276066 0.022813646 0.040002849
0.030193038 0.023268778 0.040123366
0.03087458 0.023289576 0.040056434
0.03130281 0.023310309 0.040079098
0.030337576 0.023802161 0.040240236
0.030899161 0.023770997 0.040018998
0.031374607 0.023826923 0.040329672
0.03039044 0.024291443 0.04000093
0.030863656 0.024338897 0.040457997
0.031303078 0.024307616 0.040235229
0.030362144 0.024868328 0.040459178
0.030887589 0.024875415 0.040437233
0.031346641 0.024819186 0.040430307
0.030345673 0.025356447 0.040459648
0.030878957 0.025307985 0.040433303
0.031307951 0.025204347 0.040313885
0.030300211 0.0258446 0.040382013
0.030882463 0.025835622 0.040404674
0.031249646 0.025743624 0.040467553
0.030368064 0.026285402 0.040436026
0.030863952 0.026343349 0.040407319
0.03111995 0.026480537 0.040162504
0.030368786 0.026855722 0.04035509
0.030868948 0.026874809 0.040392667
0.031110452 0.026778037 0.04032363
0.023588378 0.027323019 0.040490035
0.024105625 0.027329257 0.040411767
0.024645919 0.027374577 0.040436834
0.026154364 0.027334286 0.04040334
0.026664458 0.02741687 0.040278696
0.027125079 0.027338944 0.040445827
0.030351836 0.027353933 0.040337976
0.03081602 0.027328359 0.04032198
0.031117555 0.027239101 0.040457532
0.022652805 0.027817272 0.040471777
0.023212839 0.027850674 0.040461436
